169.36 290.16 336.74 222.19 251.97 297.38 255.89 247.48 219.02 237.53 223.90 224.22 235.00 215.77 201.17 205.61 260.04 286.22 264.46 209.01 206.39 180.05 159.46 150.22 131.48 140.91 148.76 176.33 127.80 75.50 99.83 119.13 -5.91 -40.07 41.14 79.84 84.41 102.60 91.57 53.89 -11.78 -52.44 -34.87 2.96 1.96 -12.62 -16.55 4.44 -51.55 -137.52 -33.16 -87.45 -90.11 -87.81 -166.02 -43.38 -58.44 -28.14 -4.57 -25.81 94.01 116.60 13.53 33.94 -14.25 43.42 4.90 39.18 -22.78 -92.87 -3.48 138.14 217.28 118.38 11.77 88.30 92.98 88.34 41.63 93.12 188.88 128.17 -35.26 -18.99 -61.39 -92.86 547.28 698.78 182.99 321.90 -27.18 -114.51 -72.64 445.72 1615.22 2533.69 1311.18 389.95 -211.07 -176.87 -240.64 -306.05 114.58 1067.11 -444.44 -65.41 -312.80 -174.06 -158.13 -241.26 -142.28 -400.84 -395.96 -262.19 -197.80 12.46 31.30 -267.18 -326.48 -281.58 -377.81 -367.74 -355.59 -305.87 -337.21 -296.93 -319.52 -135.27 -222.66 -248.92 -266.03 -102.48 -78.25 -25.94 60.41 376.77 436.56 247.18 159.36 34.81 -187.21 -251.80 -219.71 -91.19 -876.53 -1462.44 84.88 -372.75 -380.28 -992.35 -838.01 -470.18 -594.13 -836.23 -1076.05 -812.98 -857.08 -974.15 -797.97 -894.95 -884.77 -913.79 -600.40 -718.68 -889.56 -592.36 -622.29 -720.80 -633.75 -438.59 -346.16 -392.76 -253.05 -435.36 -127.43 -36.50 -64.41 -477.77 -303.07 -330.64 -290.57 -251.64 234.83 -384.04 -331.18 -298.40 -387.11 -929.33 -771.57 -820.34 -622.24 -437.94 -556.02 -491.08 -595.74 -357.41 -73.02 -29.53 -25.06 31.09 -47.07 -277.35 -179.45 -296.72 -313.33 -357.35 -299.15 -194.00 -162.97 -246.99 -360.16 -290.83 -297.50 -353.14 -320.29 -317.28 -294.81 -228.36 -249.95 -150.09 -141.48 -231.85 -178.21 -323.59 -256.19 -239.12 -220.05 -359.52 -222.57 -162.79 -280.04 -304.67 -145.44 -247.86 -207.66 -223.04 -281.44 -290.17 -297.75 -309.81 -404.75 -449.82 -407.68 -265.77 -213.19 -207.99 -265.37 -168.38 -208.17 -447.68 -336.38 -191.33 -337.83 -345.96 -242.08 -113.49 -342.11 -350.59 -293.47 -168.72 -397.71 -132.70 -183.77 -253.84 -207.30 321.73 -179.83 -139.41 -25.08 -38.89 -131.98 -110.80 -21.14 -92.18 -163.49 -108.08 -71.32
275.51 323.63 318.34 261.22 357.61 302.07 261.61 290.49 257.88 299.70 278.92 281.24 307.20 285.56 234.79 218.57 257.73 280.72 299.58 262.54 220.95 237.74 217.65 189.25 172.91 182.06 185.71 216.87 200.44 153.35 160.51 150.05 93.75 90.64 107.71 50.77 32.23 158.65 121.46 64.24 50.08 -29.49 61.88 8.11 19.00 12.48 9.99 -2.38 35.34 -2.95 42.63 56.88 1.88 -80.02 -20.40 -85.04 -175.78 29.82 89.91 81.42 107.79 136.65 60.41 70.59 94.54 80.52 -23.71 -1.16 38.94 -105.77 -25.34 232.78 280.55 222.25 169.48 138.73 0.63 97.99 -4.28 23.24 109.00 140.71 69.00 19.91 -80.62 -182.13 -93.26 -191.89 790.77 394.01 22.15 -203.92 -5.53 -33.82 216.47 658.33 1972.18 189.99 -81.14 82.20 -24.36 -91.52 -22.67 719.43 -66.02 427.01 -172.84 7.91 26.64 -246.69 -219.70 -233.09 -288.23 -226.00 -259.85 -165.08 -86.97 -142.36 -308.88 -135.57 -283.22 -188.73 -216.72 -58.91 -181.42 -180.39 -199.73 69.93 -72.86 158.66 -204.95 -554.44 -504.23 -561.22 -1036.88 -37.72 -48.44 -147.17 -762.91 -565.46 -909.97 -658.37 -1077.60 -1258.62 -936.83 -812.97 -541.21 -546.05 -655.75 -677.04 -588.33 -407.62 -453.71 -239.72 -468.76 -434.41 -408.00 -468.16 -418.66 -295.18 -241.99 -472.81 -292.27 -284.53 -393.08 -252.32 -310.41 -180.14 -151.54 -100.34 -81.10 -123.60 -196.02 -245.75 -154.68 -77.86 -286.53 -453.31 -268.89 -533.33 -603.27 -747.03 -536.18 -743.78 -701.05 -423.14 -306.83 -449.35 -484.50 -459.43 -134.80 16.34 -94.50 -147.76 -105.52 -107.62 -250.25 -81.35 -160.01 -179.58 -137.36 -208.23 -303.11 -397.10 -755.27 -275.00 -242.38 -195.13 -170.57 -195.13 -310.84 -212.85 -294.55 -271.03 -279.19 -245.36 -243.76 -214.38 -290.98 -169.43 -150.06 -349.28 -259.51 -276.41 -274.16 -157.30 -188.98 -298.52 -197.26 -153.29 -300.89 -352.08 -138.33 -234.66 -318.22 -214.45 -370.52 -380.83 -298.36 -306.57 -231.44 -269.27 -356.24 -253.23 -311.70 -314.85 -225.95 -318.08 -345.21 -412.54 -291.61 -196.87 -183.11 -285.84 -307.27 -263.86 -155.28 -369.42 -362.12 -80.67 -309.54 -207.10 -164.91 -180.64 -271.78 -150.10 -171.50 -145.20 -92.84 -207.95 -192.76 -115.21 -203.18 -176.65 -230.17 -139.60 -82.12
343.19 437.10 359.70 243.56 372.74 380.44 355.57 392.79 313.29 333.29 357.24 307.05 283.22 298.77 283.75 278.25 300.52 305.98 314.09 271.39 201.21 244.14 263.15 228.65 215.71 226.61 223.10 216.58 224.92 157.50 193.81 147.94 156.90 161.97 138.77 245.57 123.10 101.44 120.04 90.96 99.69 92.70 160.95 53.69 -13.62 20.25 61.25 54.35 81.99 -52.86 81.35 139.59 33.61 -51.10 -2.36 -86.21 -117.56 -3.67 50.94 33.05 131.19 120.93 97.96 125.35 25.12 64.52 88.79 61.20 14.71 84.81 -30.68 54.21 132.72 5.32 -21.57 5.02 -87.84 -17.84 -319.26 -392.51 -198.80 -98.33 33.66 3.65 -163.91 -204.80 -145.50 -272.90 1374.61 2196.97 244.87 -330.95 -210.59 -200.69 -357.15 -103.34 504.54 279.82 730.42 1519.44 727.77 139.68 -178.92 -163.77 62.79 950.44 -15.60 -21.49 66.88 -46.30 -27.52 -68.36 -6.40 -14.24 -24.33 88.22 312.38 132.65 -31.99 48.06 -2.71 -224.97 7.68 -260.42 -414.32 -478.84 -562.24 -753.28 -201.75 -748.71 -772.88 -827.28 -917.99 -1064.71 -601.54 -776.77 -446.80 -583.82 -765.62 -700.83 -793.29 -479.71 -507.19 -566.65 -649.63 -478.07 -364.82 -440.46 -512.92 -265.76 -493.06 -240.67 -242.72 -161.91 -223.83 -280.89 -224.02 -213.74 -206.80 9.21 -28.93 -271.68 39.99 -186.14 -334.36 -204.43 -196.77 -213.44 -117.40 -257.91 -391.36 -325.03 -400.34 -576.71 -678.29 -354.02 -634.29 -821.47 -330.87 -296.23 -419.67 -402.39 -288.30 -307.38 -68.21 -238.04 -95.18 -510.28 -454.35 -293.41 -163.02 -133.74 -216.82 -237.92 -238.51 -389.37 -141.60 -242.67 -183.66 -213.59 -165.04 -290.91 -310.69 -233.23 -209.30 -114.32 -231.87 -115.04 -203.88 -221.50 -181.75 -245.58 -211.50 -217.35 -229.91 -419.77 -280.53 -116.04 -135.08 -156.66 -81.92 -285.33 -265.65 -253.43 -340.93 -308.88 -239.57 -284.63 -310.06 -255.36 -181.11 -227.65 -147.80 -80.36 -245.00 -298.49 -289.07 -401.90 -278.85 -241.04 -186.66 -310.13 -326.15 -295.78 -328.90 -160.88 -350.22 -251.80 -354.20 -435.89 -403.98 -274.09 -168.15 -352.15 -215.22 -124.64 -30.98 -286.97 -337.98 -184.20 -252.10 -211.42 -232.27 -160.52 -227.84 -226.77 -247.90 -174.30 -234.04 -141.12 111.47 -184.09 -123.41 -167.85 -93.02 -94.28 -93.91
394.28 393.05 440.03 401.36 436.37 460.47 433.01 448.08 413.31 400.92 398.37 388.04 321.95 328.95 328.57 321.42 361.52 342.34 381.58 332.34 216.10 406.63 348.38 270.86 267.35 268.89 270.47 292.37 253.61 259.55 257.88 178.82 216.89 188.06 148.46 153.15 157.80 102.32 137.02 132.70 119.08 132.83 152.45 21.01 -30.80 51.97 79.36 24.78 62.33 -35.05 82.69 132.01 36.71 -15.62 -35.94 -57.49 -111.18 -133.22 2.50 6.00 88.92 173.82 136.40 149.03 52.09 25.42 53.22 117.62 149.16 -60.35 -121.64 -228.74 -89.40 -135.99 -134.28 -189.52 -418.88 -167.95 -72.35 -93.10 83.37 17.13 -62.72 -37.27 104.41 -188.86 -152.77 28.72 2197.30 2977.62 958.31 -259.31 -316.11 -281.17 -375.14 -336.46 -165.35 380.83 1742.01 3245.98 1630.51 161.05 -106.13 -184.13 -25.41 1264.00 121.27 10.91 84.45 55.53 0.99 106.28 188.44 203.42 206.07 124.47 259.39 -49.63 -41.83 -227.66 -26.80 -363.00 -346.04 -436.10 -232.07 -576.58 -678.15 -636.78 -756.50 -378.98 -535.91 -398.63 -619.18 -594.45 -470.10 -340.06 -306.67 -370.15 -632.22 -525.56 -445.85 -172.13 -275.93 -398.86 -329.73 -342.49 -252.35 -301.85 -376.18 -293.74 -278.10 -177.53 -254.49 -126.14 17.62 -19.75 -268.92 -124.01 -156.90 -205.01 -228.98 -223.41 -72.63 -339.71 -493.77 -384.32 -325.17 -509.43 -424.44 -564.27 -693.21 -707.26 -772.64 -833.73 -563.02 -785.34 -574.58 -510.60 199.78 -398.57 -42.24 -185.56 -198.45 -407.10 -316.45 -325.86 -311.76 -487.19 -302.42 -238.84 -335.90 -283.04 -255.19 -313.89 -310.85 -435.96 -384.04 -304.59 -142.50 -130.00 -227.46 -294.17 -329.54 -219.20 -216.72 -186.79 -186.96 -242.46 -226.32 -274.74 -290.40 -262.45 -121.44 -399.19 -324.12 -351.71 -245.28 -51.60 -40.37 -120.67 -104.85 -318.78 -322.88 -313.84 -301.96 -304.45 -289.50 -266.78 -334.04 -311.40 -214.78 -302.88 -193.94 -227.07 -270.55 -313.79 -314.73 -323.21 -329.30 -274.93 -300.54 -283.87 -297.42 -161.96 -260.27 -136.10 -338.48 -235.18 -294.84 -215.22 -247.76 -144.21 -66.11 -142.91 -147.00 -141.30 -99.22 -6.59 -389.39 -210.46 -297.59 -273.76 -150.62 -173.55 -220.60 -263.75 74.41 -386.17 -441.93 -415.67 -364.82 -175.65 -209.18 -126.47 -132.64 -108.25 -85.08
431.79 407.77 488.40 443.98 470.73 452.28 535.76 486.81 468.99 439.20 431.88 437.58 422.09 338.27 326.44 388.12 344.91 364.09 366.25 362.84 286.15 429.93 383.32 342.59 330.51 337.75 348.79 364.55 301.65 314.18 341.69 256.34 231.95 203.22 192.59 194.35 169.02 148.94 139.23 109.79 106.94 189.98 150.94 88.32 110.33 109.29 82.31 27.70 60.41 70.57 107.87 97.56 79.92 88.60 56.40 -65.79 -63.67 -62.92 -268.75 24.52 -39.82 57.58 110.98 5.86 -124.39 -151.36 -160.38 -116.04 141.82 30.62 168.66 -108.02 -195.70 -152.42 -72.48 -98.86 103.02 -68.15 -38.83 30.18 -146.46 2.68 76.91 87.54 -90.51 -259.77 -166.82 -18.44 948.30 1259.04 496.26 -108.52 -225.01 -140.85 -300.10 -265.92 -217.93 33.47 708.20 985.21 751.31 -67.02 52.93 44.11 112.01 776.95 290.24 87.90 -63.57 -123.91 19.62 139.95 -12.80 90.48 80.15 -104.13 -204.96 -323.67 -308.96 -153.39 -124.58 -507.27 -279.51 -410.00 -310.97 -335.49 -244.55 -305.37 -208.73 -273.75 -382.04 -231.11 -298.71 -482.08 -381.06 -221.81 -272.43 -246.34 -297.86 -203.36 -373.08 -92.04 -108.15 -264.51 -371.28 -276.19 -337.25 196.05 -258.42 -292.91 -94.37 -178.01 -106.17 -213.09 -201.13 -359.20 -434.92 -294.66 -365.18 -316.07 -537.61 -548.28 -608.84 -636.51 -772.93 -752.64 -762.25 -751.18 -561.05 -887.81 -804.76 -665.33 -684.11 -420.51 -313.52 -429.47 -389.55 -64.82 -198.42 -447.95 -100.32 -142.56 -140.14 -276.52 -206.94 -405.27 -350.03 -343.08 -288.06 -229.38 -247.66 -289.69 -346.08 -377.75 -301.28 -335.58 -280.24 -348.81 -339.91 -177.88 -207.93 -315.98 -446.32 -312.84 -266.88 -164.40 -213.13 -277.04 -334.54 -431.71 -305.63 -261.89 -234.36 -300.58 -329.30 -170.32 -168.69 -165.65 -167.66 -136.84 -147.97 -274.23 -257.78 -221.80 -147.17 -137.83 -104.51 -291.83 -267.48 -236.27 -192.40 -234.55 -162.21 -144.03 -193.43 -266.83 -267.37 -297.25 -294.11 -87.70 -268.20 -399.32 -420.10 -396.41 -382.72 -246.86 -315.16 -283.69 -188.95 -229.00 -234.92 -195.60 -212.17 -175.69 -154.00 -216.38 -131.91 -147.97 -473.82 -184.59 -67.55 -135.35 -199.91 -180.01 -162.13 -334.08 -362.65 451.46 688.98 -370.52 -281.97 -307.03 -275.62 -220.24 -221.14 -147.02 -91.75
437.15 483.33 553.11 598.64 490.46 509.44 586.62 515.62 559.37 513.11 494.12 479.99 484.61 391.92 361.51 358.01 389.35 389.19 392.69 383.98 392.10 396.77 402.68 390.51 386.48 376.89 395.77 396.43 337.63 349.60 372.06 284.96 237.15 250.52 229.63 247.95 254.53 194.89 174.03 159.06 110.34 150.68 161.51 161.08 160.35 141.02 138.46 151.96 158.94 133.57 136.28 132.32 128.02 86.63 70.62 87.26 21.14 45.04 -174.67 -92.88 -120.69 -77.36 -111.67 24.97 -56.54 186.98 212.02 80.36 200.17 -58.56 -50.65 -28.17 -38.42 -68.27 -93.69 96.34 137.22 -50.26 -89.26 -61.78 2.89 -184.72 32.47 8.83 -66.92 -112.43 103.27 -38.83 -94.64 -120.22 62.46 273.32 45.64 -134.52 -161.87 -184.96 -265.04 -285.04 -137.73 15.82 49.56 56.99 -357.79 -310.68 -131.20 1112.15 474.84 -29.14 -68.98 -385.98 -267.04 -325.21 -703.90 -595.32 -497.90 -536.88 -159.45 -187.28 -219.70 -147.15 227.56 -30.55 -120.67 -102.15 -129.43 -296.97 -282.80 -347.02 -133.82 -196.13 -309.00 -266.35 -416.55 -371.37 -184.79 -239.54 312.99 219.13 -322.42 -396.38 -259.40 -247.51 -312.91 -382.86 -395.10 -423.73 -290.63 -406.91 -443.93 -494.99 -401.61 -314.85 -332.06 -505.76 -691.54 -681.21 -473.72 -502.60 -589.87 -762.35 -778.29 -637.35 -364.96 -301.51 -421.99 -546.25 -492.50 -439.72 111.44 -84.35 67.91 -286.58 -516.03 -368.65 -293.14 -397.46 -425.46 -255.67 -267.32 -302.79 -143.77 -96.93 -109.02 -227.17 -184.44 -218.31 -299.71 -329.63 -245.92 -273.16 -220.59 -337.44 -323.61 -252.26 -314.97 -344.63 -328.17 -297.92 -348.38 -210.29 -257.37 -345.09 -233.46 -312.67 -320.22 -213.42 -376.95 -355.59 -330.96 -323.03 -222.67 -262.59 109.27 -275.08 -279.66 -237.12 -107.38 -220.59 -189.46 -209.90 -203.82 -359.03 -314.31 -222.50 -305.03 -257.98 -255.20 -286.14 -349.47 -221.41 -253.41 -301.49 -283.39 -206.33 -377.45 -262.94 -395.10 -494.48 -361.12 -216.11 -369.14 -363.21 -12.63 -329.64 -323.15 -218.48 -151.91 -393.33 -348.43 -15.83 287.74 -222.96 -193.45 -321.37 -366.74 -210.84 -210.93 -164.21 -261.87 -204.70 -151.79 -29.91 -217.67 -355.90 -304.07 -440.94 -476.62 -179.62 1058.54 440.12 924.66 -41.93 50.26 -11.04 120.87 -96.93 -120.10
521.26 549.42 546.11 574.92 619.89 528.96 515.82 537.34 574.96 549.94 552.19 500.24 459.46 455.55 452.38 392.86 407.17 400.71 413.11 476.28 515.06 438.00 423.75 443.79 482.24 505.18 472.05 420.32 397.03 429.31 439.55 390.31 283.94 295.52 288.46 237.14 224.42 237.28 273.52 417.35 200.40 127.06 125.60 167.75 213.38 220.58 156.11 229.18 219.74 173.86 250.50 249.01 179.89 108.19 124.99 219.15 145.91 71.68 -169.13 -157.25 -12.44 -61.11 146.18 104.72 9.71 203.02 56.20 -41.26 174.28 138.90 26.62 -16.28 -48.49 -101.55 -78.95 79.83 125.78 81.15 33.06 22.94 124.55 35.87 -40.09 14.41 -33.38 -11.50 64.90 178.00 5.99 -174.90 -251.99 267.27 228.90 -28.10 -188.96 -206.85 -345.49 -319.87 -323.16 -242.34 70.03 136.71 -111.77 -509.20 -224.26 690.20 656.43 -240.48 93.03 -3.51 -280.82 -265.32 -394.18 -77.24 124.56 42.89 275.82 219.02 368.76 336.46 169.72 223.44 -17.18 -226.58 -255.37 -316.85 -405.41 -351.36 -151.06 -306.80 -369.86 -304.34 -497.53 -355.12 -431.67 -409.82 -74.03 -125.17 -570.97 -574.79 -183.80 -261.16 -249.02 -215.19 -248.04 -152.96 -166.41 20.97 -65.62 -110.75 -58.11 -237.50 -153.69 -73.44 -339.08 -63.05 -328.74 -283.71 -326.92 -301.24 -214.65 -155.65 -678.86 -222.19 310.67 -181.04 -300.36 -660.57 -484.30 -500.29 -618.18 -275.94 -431.46 -277.60 -247.66 -174.94 -393.18 -145.55 -109.27 -234.08 -163.53 -132.60 -117.56 -131.88 -380.92 -378.99 -368.32 -302.73 -187.02 -320.49 -293.26 -413.24 -419.59 -268.91 -307.76 -412.28 -344.41 -356.33 -287.73 -273.80 -344.65 -344.01 -332.32 -272.90 -308.35 -242.59 -274.52 -334.93 -312.63 -286.90 -269.11 -382.51 -281.00 -224.09 -327.66 -279.61 -237.14 -274.36 -204.59 -213.65 -240.41 -356.11 -397.65 -287.22 -310.35 -317.12 -324.97 -219.49 -99.22 -235.25 -298.25 -314.42 -267.35 -329.34 -385.13 -437.36 -410.12 -433.80 -471.49 -295.56 -277.77 -276.92 -296.21 -103.10 -182.60 -333.82 -160.18 -371.20 -393.76 73.21 -113.81 -329.00 -218.61 -295.01 -339.07 -258.71 -175.85 -148.21 -322.29 -200.97 -262.99 -214.27 -155.98 -193.71 -334.26 -322.95 -375.48 -374.42 -386.01 -155.49 857.32 455.62 246.55 604.28 582.58 149.24 -142.09
611.54 655.50 730.41 604.89 556.38 592.23 573.67 534.90 550.72 540.16 545.28 528.32 492.95 495.47 460.74 452.71 485.11 458.02 443.24 456.20 517.67 504.72 474.94 498.70 485.44 472.55 504.47 511.69 448.43 391.79 412.38 389.82 291.07 363.81 404.75 329.50 389.08 374.43 383.31 306.73 193.73 214.18 149.39 142.49 198.90 222.93 137.70 210.97 114.86 67.14 247.32 242.95 82.09 121.63 300.40 270.49 254.56 244.57 170.02 196.12 31.93 -169.57 36.56 -9.62 -80.89 -91.22 11.97 -2.46 14.65 -47.04 30.72 -3.41 -77.77 -102.05 -140.75 86.92 84.93 85.81 98.98 189.80 56.18 185.90 171.06 141.58 209.42 185.47 216.62 110.99 134.07 -102.83 -166.82 -18.84 80.73 57.57 -41.36 -235.20 -317.43 -333.41 -239.51 -85.06 89.38 3.94 609.70 -38.18 280.21 889.46 684.57 662.47 591.86 -82.78 180.99 120.78 128.25 173.39 142.72 65.61 128.69 138.81 208.14 185.23 215.11 188.83 -109.04 -171.27 -247.86 -322.36 -379.90 -353.94 -150.75 -121.53 -226.56 -242.16 -413.41 -447.15 -208.38 30.86 26.09 86.30 -112.31 -88.67 40.20 92.77 71.47 -168.99 -209.74 -40.91 -162.91 -315.67 -348.73 -296.78 -178.56 -109.92 -213.16 -166.55 -5.61 69.97 -115.80 6.63 -127.38 -84.07 -91.91 -365.07 -618.56 -700.41 -736.39 -714.16 -513.72 -345.42 -425.47 -377.40 -577.12 -209.26 -328.59 -286.59 -229.51 -223.32 -376.03 -242.50 -194.36 -219.26 -309.42 -342.18 -283.13 -188.98 -375.35 -341.75 -270.33 -311.80 -267.85 -309.60 -331.49 -310.26 -307.36 -306.79 -303.76 -317.96 -258.92 -270.32 -316.87 -205.45 -239.72 -246.43 -256.84 -221.70 -136.21 -202.32 -318.66 -272.88 -163.05 -139.44 -242.05 -282.26 -183.46 -256.20 -325.05 -270.78 -261.71 -253.92 -295.39 -389.88 -314.42 -268.37 -269.64 -270.67 -235.04 -350.67 -336.94 -299.32 -365.00 -285.29 -359.34 -374.17 -205.04 -328.31 -340.49 -403.24 -303.28 -221.99 -380.58 -271.34 -298.34 -276.47 -323.36 35.22 26.47 -296.27 -217.12 -214.31 2.75 881.51 536.30 -396.02 -358.30 -261.98 -363.38 -234.64 -180.70 -188.16 -203.87 -129.76 -165.56 -290.60 -100.72 -54.13 -332.02 -381.76 -314.48 -292.67 -320.55 -396.37 -401.18 -460.04 -512.92 -270.04 -162.57 264.94 7.41
624.40 659.42 726.80 591.98 484.75 573.61 594.94 583.83 598.39 558.84 549.59 559.11 564.04 508.12 528.04 474.68 435.26 446.75 509.89 491.37 491.39 547.24 491.14 566.02 500.43 497.22 479.92 459.32 503.94 459.39 451.85 484.11 412.89 384.03 420.75 420.74 463.09 396.67 246.75 177.03 240.91 318.55 192.77 244.01 176.22 173.26 229.70 245.81 170.82 95.18 212.38 59.22 -107.33 22.65 247.47 165.00 310.25 256.06 41.41 120.78 74.66 18.90 -19.50 -33.98 -91.29 -97.90 -34.27 -58.21 59.27 -72.24 104.67 124.62 -41.93 -19.31 13.02 143.76 168.16 275.17 191.49 337.67 334.41 172.72 237.46 -48.27 -147.90 -105.91 0.00 -86.82 81.88 -87.02 -194.53 -19.98 372.06 1355.68 441.09 119.59 -238.28 -451.69 433.16 1212.10 551.39 229.98 417.54 389.19 525.16 707.09 524.79 1532.03 694.89 -0.10 379.77 373.91 -7.66 -34.24 85.43 109.91 148.14 167.70 85.93 218.04 164.32 164.00 12.57 -12.34 -21.16 114.22 -133.06 -111.71 132.52 94.94 38.57 -255.43 -239.05 -79.56 -196.25 21.84 34.22 -2.69 -19.30 -44.82 -67.51 -106.45 -167.87 -289.07 -278.41 -234.75 -310.86 -296.45 -230.58 -319.53 -291.47 -250.50 -266.87 -221.32 -363.94 -91.48 -55.16 4.34 -60.36 -244.63 -691.10 -47.42 -226.21 -364.31 -515.53 -233.07 -398.29 -672.01 -229.88 -141.34 -452.16 -543.95 -323.58 -369.72 -421.72 -489.83 -368.14 -295.24 -193.46 -264.21 -438.50 -411.97 -340.04 -297.38 -423.27 -321.44 -344.35 -403.22 -467.45 -369.38 -309.70 -310.19 -323.98 -310.26 -289.68 -303.83 -192.28 -289.41 -283.16 -183.02 -248.77 -223.26 -260.02 -225.25 -266.61 -262.40 -314.23 -130.90 -102.67 -258.65 -231.90 -245.94 -215.83 -330.56 -357.62 -269.14 -220.57 -235.73 -246.47 -488.41 -241.12 -223.11 -302.08 -358.66 -293.57 -308.03 -315.73 -336.22 -312.57 -260.96 -281.74 -368.56 -247.83 -230.35 -244.63 -254.07 -240.68 -257.88 -298.65 -330.59 -292.11 -297.60 -256.77 -234.29 -98.93 -235.86 -403.75 -284.91 -355.36 -302.03 -379.41 -373.40 -344.45 -329.30 -299.02 -284.36 -292.30 -327.71 -210.26 -171.04 -237.93 -300.84 -252.96 -146.34 -9.15 -212.80 -349.54 -258.89 -342.46 -318.52 -381.98 -351.20 -330.63 -177.53 -187.94 -165.69 -218.50
580.90 621.05 665.97 594.77 614.76 677.21 611.65 629.86 604.62 683.32 591.50 587.94 582.08 567.49 553.26 532.60 505.98 482.61 542.54 546.53 513.39 605.01 526.86 535.84 462.34 574.54 572.64 497.95 511.68 522.89 560.41 536.56 492.40 541.23 483.68 435.94 489.83 438.30 280.70 252.47 408.73 413.85 292.67 309.98 233.63 164.37 178.75 154.43 84.46 40.17 53.85 3.79 150.59 279.81 352.80 372.28 465.12 330.08 99.15 64.80 39.28 178.83 78.39 20.88 -82.17 -85.06 -59.16 185.46 366.85 361.49 358.68 198.34 162.16 71.07 31.15 48.46 -128.64 130.13 46.89 188.31 151.25 -67.59 113.93 -50.29 -97.80 -224.39 -32.01 -53.33 127.04 -135.46 -185.15 772.13 2614.25 1875.87 614.25 158.27 347.60 -128.00 414.17 1806.33 1279.58 587.35 562.32 437.04 317.81 -57.49 -339.97 1399.37 648.23 88.50 138.52 -12.83 -46.48 -82.99 204.19 219.49 135.50 156.38 111.41 65.87 101.26 -20.57 64.95 -24.17 165.21 50.04 -137.22 -114.77 -80.25 -127.87 -130.89 -72.49 -212.51 -463.89 -205.33 -158.58 -160.08 -47.39 -169.02 -226.20 -170.10 -173.55 -274.95 -304.53 -281.08 -298.35 -229.56 -326.57 -256.77 -339.57 -279.78 -134.05 -258.71 -276.57 -442.61 -381.78 -75.95 -23.72 -267.58 -858.11 -521.27 -0.39 -224.89 -176.41 -213.75 -372.01 -248.54 -625.15 -107.79 -234.42 -283.98 -432.35 -355.10 -307.48 -435.55 -514.86 -336.43 -366.65 -349.98 -360.84 -391.33 -280.44 -355.66 -315.86 -343.71 -462.40 -445.92 -351.91 -380.29 -356.14 -314.24 -337.26 -305.21 -336.47 -282.40 -241.90 -196.72 -233.30 -278.19 -215.35 -312.97 -353.91 -272.32 -207.56 -313.35 -381.83 -189.03 -144.25 -181.80 -204.72 -284.39 -263.48 -163.80 37.63 -216.23 -276.57 -267.34 -390.49 -313.39 -184.35 -350.59 -238.16 -388.01 -425.22 -240.31 -201.73 -248.90 -267.31 -208.63 -150.83 -202.34 -215.31 -245.51 -204.24 -175.78 -264.58 -387.65 -354.72 -424.05 -251.80 -208.62 -96.86 -210.62 -398.93 -442.90 -251.86 -273.92 -362.53 -559.78 -415.37 -113.30 -243.56 -190.80 -302.89 -230.66 -300.50 -327.47 -357.72 -246.58 -246.97 -187.48 -263.43 -291.76 -118.31 -23.48 14.06 -282.86 -253.92 -308.56 -353.00 -278.14 -191.27 -189.93 -82.59 -205.63 -209.29 -340.99
585.79 591.60 608.30 641.26 647.94 643.55 612.23 628.14 650.24 689.28 669.58 591.86 613.86 634.25 579.45 583.50 586.20 531.93 531.42 559.82 559.62 607.67 638.26 586.65 481.32 562.07 654.30 584.41 560.51 490.82 515.38 592.25 555.69 521.52 505.77 494.01 495.26 505.42 438.26 259.62 433.75 483.14 260.66 246.04 225.97 187.09 134.05 229.63 159.67 233.55 228.69 266.46 388.22 316.70 351.16 344.46 218.95 172.81 155.13 127.68 110.92 206.04 160.64 142.50 99.31 167.98 233.11 213.56 46.43 116.47 -36.10 -109.57 -1.81 11.18 32.34 -14.60 71.00 313.05 10.07 49.03 -9.80 -69.65 -153.39 -157.54 -97.96 -241.42 -194.86 57.10 207.76 119.53 -40.54 387.41 1606.49 915.85 -99.61 79.09 306.94 424.04 -70.57 -56.46 -13.53 177.58 589.91 33.42 132.89 -235.72 -98.72 1314.31 1401.78 730.32 314.77 207.27 351.60 179.64 377.62 493.37 292.82 199.41 196.31 -5.48 -41.60 234.52 192.54 517.03 297.99 -180.46 -194.21 -149.66 -124.17 -167.64 -134.79 -89.44 -186.58 -136.79 -199.72 -271.69 -297.09 -249.81 -298.79 -372.43 -303.83 -395.67 -328.84 -228.20 -248.69 -223.50 -260.23 -326.41 -236.13 -348.06 -337.82 -315.58 -393.34 -353.58 -492.05 -396.91 -262.34 -463.61 -404.59 -686.57 -623.51 -272.89 -258.75 -279.48 -64.71 -400.52 -275.64 -395.95 -261.89 -410.38 -311.48 -381.41 -330.59 -303.23 -522.07 -562.38 -340.46 -385.07 -324.50 -270.42 -373.91 -191.23 -411.42 -282.92 -276.38 -411.26 -405.84 -396.50 -356.81 -410.77 -360.58 -368.40 -402.16 -381.58 -300.10 -314.41 -351.39 -304.14 -308.53 -307.69 -250.91 -175.03 -247.04 -251.86 -264.10 -356.01 -288.48 -208.20 -297.67 -191.23 -209.00 -183.23 -206.56 -269.17 -296.40 -376.72 -287.91 -220.97 -374.68 -157.71 -352.29 -268.30 -281.02 -513.20 -170.90 -219.68 -149.54 -287.13 -157.35 -116.82 -210.70 -262.22 -322.59 -214.22 -324.15 -335.53 -257.32 -202.39 -169.27 -225.35 -281.91 -200.00 -302.96 -394.04 -405.67 -345.12 -447.28 -345.58 -356.67 -435.80 -581.19 -262.68 -242.42 -396.98 -336.00 -336.32 -240.12 -288.66 -247.25 -349.65 -260.18 -220.98 -135.60 -23.03 -34.06 -79.22 -95.96 -241.25 -320.69 -300.68 -242.81 -114.05 -99.62 -280.06 -191.51 -137.61 -305.81
607.78 596.95 601.22 622.68 645.46 646.17 657.36 673.71 661.60 669.29 655.23 624.82 659.43 645.41 627.01 600.90 589.17 597.04 587.79 619.43 644.92 634.73 626.17 620.10 593.49 609.69 635.68 592.82 637.28 805.75 590.88 578.22 670.97 613.24 550.10 562.39 588.28 719.08 525.35 248.27 690.11 557.97 581.97 268.86 255.01 295.60 361.83 332.05 318.41 294.12 314.38 281.10 254.20 258.53 253.03 255.16 249.96 290.36 311.55 241.44 266.69 321.84 277.23 257.37 137.58 -117.56 -117.55 -99.13 -91.87 -58.09 44.72 492.50 110.13 229.14 -27.16 -201.46 -182.52 -232.04 -291.80 -42.33 -88.47 -97.67 -118.97 -177.94 -205.04 -149.66 -141.71 -185.85 -99.45 -134.62 -237.36 176.48 469.77 282.03 1011.24 1441.65 1022.30 955.47 182.16 -75.81 -107.22 -37.07 70.32 -68.30 908.38 971.51 699.88 1425.78 1899.90 1441.78 1021.25 617.10 462.02 51.94 682.38 1576.59 1807.05 1963.23 1141.08 599.50 1032.66 1143.84 537.29 718.61 -34.42 -154.31 -207.03 4.58 71.64 -41.35 -78.75 -49.66 -213.89 -67.57 -245.74 -145.36 -206.61 -183.62 -184.31 -203.13 -207.92 -239.82 -275.90 -301.15 -320.01 -217.15 -205.08 -313.69 -220.93 -289.68 -281.00 -256.21 -367.95 -287.75 -335.06 -235.59 -84.82 -466.52 -95.04 -525.12 -571.14 -400.34 -294.23 -174.73 -447.54 -262.44 -188.07 -262.38 -351.77 -420.92 -386.50 -392.48 -281.20 -357.15 -569.77 -385.94 -323.16 -269.67 -239.89 -253.23 -288.50 -280.77 -331.68 -278.77 -338.26 -362.38 -350.54 -336.67 -369.37 -369.03 -320.28 -416.82 -408.22 -382.92 -252.29 -284.79 -356.18 -282.15 -287.30 -207.77 -228.73 -199.95 -179.59 -155.51 -218.48 -192.44 -188.69 -194.83 -236.29 -206.59 -210.25 -225.01 -263.48 -241.05 -268.38 -313.07 -289.40 -275.89 -239.78 -232.94 -263.31 -223.15 -196.51 -399.48 -290.07 -231.70 -221.55 -266.24 -270.44 -184.97 -178.92 -146.02 -158.82 -223.82 -293.34 -212.73 -216.35 -145.20 -209.31 -265.82 -288.19 -207.68 -273.33 -398.73 -388.50 -316.15 -344.82 -307.84 -330.95 -273.93 -311.77 -302.74 -288.63 -376.30 -313.85 -394.17 -320.82 -262.15 -288.16 -489.48 -276.89 -51.20 -92.88 -45.73 -84.35 -137.19 -165.98 -129.47 -181.13 -245.19 -145.53 -286.89 -191.36 -184.14 -63.86 -109.08 -231.37
593.43 660.44 673.69 704.39 771.06 707.63 672.98 657.90 666.79 668.80 668.06 718.38 659.06 684.75 714.51 650.49 626.28 612.86 593.55 632.97 641.58 657.37 661.11 658.85 658.55 658.48 712.45 701.52 621.32 788.13 650.52 602.28 632.36 621.55 571.94 589.74 622.83 649.67 505.08 698.66 422.47 306.62 392.46 433.23 366.05 358.99 347.85 336.78 292.53 290.20 293.03 246.86 219.96 337.69 438.06 525.56 443.66 403.23 288.61 211.84 222.71 178.12 54.99 -85.31 7.35 -26.45 -90.13 -74.94 -11.26 115.73 -155.69 -28.73 -182.83 75.94 -23.43 -56.77 -99.60 -94.56 -98.65 4.44 10.37 52.40 -46.66 -11.63 65.23 -60.82 28.55 21.05 -6.52 38.67 -109.17 -13.90 46.77 630.61 2176.72 2538.61 2138.06 1704.81 1503.64 1301.16 777.85 420.42 277.39 635.70 1911.59 2375.75 1957.24 2326.58 1953.87 1191.63 1783.62 2059.73 1348.83 553.12 778.16 1098.06 1089.26 1299.89 673.01 279.83 493.33 326.73 -28.74 5.85 -163.53 -96.81 -223.60 -55.41 -58.59 -131.56 -90.18 -49.84 -54.22 -88.30 -254.86 -150.88 -119.78 -21.63 -43.46 -209.99 -101.61 -189.84 -341.25 -424.54 -247.05 -245.02 -257.22 -262.08 -224.56 -290.30 -318.13 -338.96 -329.50 -187.48 -361.61 -249.45 -217.29 -238.05 -227.71 -349.45 -545.37 -358.52 -291.95 -366.89 -415.13 -358.65 -147.33 -291.63 -387.48 -402.91 -389.30 -354.06 -349.02 -245.80 -352.07 -293.07 -312.64 -309.12 -306.78 -246.65 -291.34 -332.94 -381.27 -278.80 -378.90 -356.70 -313.58 -272.81 -388.59 -380.92 -387.71 -437.15 -357.62 -352.45 -323.82 -360.53 -301.81 -205.24 -246.51 -210.42 -182.91 -185.29 -142.47 -199.11 -166.14 -181.48 -198.37 -197.80 -194.32 -212.55 -246.75 -186.81 -158.42 -240.99 -193.76 -363.82 -257.36 -345.75 -344.92 -279.27 -218.71 -243.73 -184.77 -325.98 -226.63 -229.98 -251.00 -231.01 -160.74 -190.06 -208.88 -244.29 -199.39 -305.33 -114.57 -36.02 -115.34 -178.82 -139.95 -245.37 -376.49 -306.65 -254.39 -300.75 -375.48 -303.18 -208.41 -244.70 -284.47 -326.00 -254.11 -315.91 -300.05 -375.62 -242.73 -290.01 -351.42 -331.05 -305.08 -196.37 -235.78 9.91 -15.87 -140.04 -146.82 -145.13 -131.74 -118.34 7.27 -368.60 -624.64 -374.26 -323.70 -131.13 30.70 -81.80 -141.11
620.59 632.93 616.91 646.09 696.97 700.50 703.42 689.20 682.20 665.79 698.86 682.83 678.13 699.06 734.18 710.47 666.43 677.29 720.80 781.05 677.68 604.96 724.45 715.78 701.23 759.48 785.92 712.56 639.15 669.55 693.23 653.22 678.59 606.02 568.14 590.98 559.28 589.28 590.98 628.53 468.76 427.92 420.14 426.81 414.21 445.45 408.00 353.25 389.71 410.91 439.06 528.90 436.60 355.08 268.12 232.87 -7.89 -6.34 36.64 66.60 99.92 87.59 125.08 6.42 77.99 155.04 258.57 -95.40 -138.61 -124.01 -67.93 36.64 4.71 303.03 -12.32 102.84 -60.60 45.47 -17.22 42.35 220.24 333.07 135.41 230.72 365.32 204.86 345.62 280.53 180.51 179.70 28.50 -140.44 219.10 1111.04 1936.76 2686.26 2926.68 2617.98 1675.07 1605.17 1565.86 1089.80 1081.90 1261.97 1555.73 1972.93 1349.96 1326.54 1127.76 753.88 1033.91 960.96 1113.00 652.77 342.94 145.78 -130.40 -124.88 21.22 141.13 93.06 60.49 -53.58 -75.03 -88.95 -1.47 -145.80 -103.97 -4.21 44.33 21.46 -52.83 63.44 -61.98 -105.91 -58.87 -120.52 -43.65 -136.92 -225.52 -261.07 799.34 -30.06 190.13 -370.90 -331.63 -386.19 -235.28 -119.89 -271.93 -281.53 -214.97 -286.62 -175.72 -281.56 -324.01 -253.85 -308.58 -253.28 -393.56 -541.48 -354.32 -297.07 -442.08 -414.68 -257.25 -126.10 -119.55 -424.07 -429.53 -285.98 -282.16 -256.12 -329.78 -339.74 -328.50 -309.39 -239.92 -243.35 -218.12 -315.80 -350.25 -293.09 -323.25 -291.16 -325.45 -444.90 -293.81 -229.86 -242.25 -353.02 -272.39 -249.73 -254.52 -40.08 -111.32 -170.98 -122.67 -258.21 -185.93 -214.57 -135.42 -191.34 -197.00 -230.70 -129.77 -213.31 -121.00 -198.98 -230.36 -202.13 -40.09 -77.05 -170.38 -206.64 -251.91 -256.57 -334.55 -278.83 -250.00 -278.08 -246.73 -189.22 -262.79 -307.49 -202.70 -264.14 -297.91 -243.61 -256.53 -243.51 -265.38 -262.21 -303.72 -252.59 -156.92 -66.31 -260.94 -206.14 -236.09 -262.61 -310.19 -38.08 -117.62 -279.66 -266.90 -330.12 -195.16 -332.81 -308.20 -235.04 -100.51 -281.43 -324.93 -309.79 -326.77 -341.11 -296.68 -364.21 -302.53 -258.27 -172.59 -143.89 -151.62 -174.93 -101.30 -176.58 -149.85 -405.26 -461.35 -594.12 -535.13 -444.13 -235.34 -76.35 -73.73 -54.68
656.92 643.93 683.82 716.90 666.54 716.74 718.87 717.96 705.26 715.88 850.45 759.99 730.25 703.96 686.65 698.44 708.23 736.85 700.81 750.53 742.44 749.44 817.97 834.60 691.05 802.10 767.36 674.60 699.68 709.84 627.73 551.84 658.79 555.03 492.08 648.69 617.11 588.83 593.79 523.79 477.93 482.21 459.04 426.54 410.20 448.54 528.72 605.81 600.37 635.92 394.27 100.52 449.99 320.08 95.65 74.21 69.70 214.88 315.45 239.80 158.38 175.96 246.00 202.32 74.89 -31.40 87.75 36.87 110.91 -82.02 -168.31 -145.43 -121.94 -30.61 24.17 135.68 132.76 40.83 275.37 256.03 352.81 515.60 454.93 497.41 399.19 295.30 216.94 216.94 199.41 168.54 -8.04 -43.14 7.27 544.76 960.41 1533.84 2213.98 2066.32 1548.20 2433.29 1778.98 1015.71 1096.53 958.12 960.22 570.71 274.27 344.44 491.78 614.36 491.28 498.20 459.81 307.32 57.40 92.64 123.90 199.19 191.48 47.41 46.30 65.50 -102.23 -94.85 31.65 112.19 -27.13 123.13 98.86 316.64 142.56 118.64 72.29 3.04 -107.13 -79.24 -196.34 -25.96 -170.31 -172.02 -222.78 -218.72 -385.00 22.93 -161.14 -151.73 -242.55 -319.93 -259.51 -289.99 -304.10 -170.70 -293.67 -168.79 -284.16 -243.82 -147.65 -250.78 -328.37 -326.64 -440.52 -390.71 -166.82 -390.63 -327.20 -321.84 -123.06 -122.67 -326.26 -226.66 -171.25 -143.36 -268.94 -510.56 -360.11 -266.91 -266.32 -284.62 -292.88 -300.04 -370.88 -342.57 -241.70 -228.42 -210.04 -232.94 -297.76 -168.87 -75.61 56.36 -36.21 -190.72 -326.00 -304.07 -261.85 -228.83 -184.58 -199.78 -232.60 -225.23 -172.65 -222.80 -102.30 -78.17 -233.49 -215.50 -232.67 -181.26 -192.26 -163.71 -139.94 -158.25 -154.91 -142.97 -123.24 -271.63 -306.38 -324.43 -273.67 -272.23 -254.19 -280.03 -255.13 -325.71 -294.73 -107.81 -294.69 -368.10 -288.26 -304.41 -145.77 -214.16 -255.15 -239.15 -187.01 -228.73 -122.76 -206.66 -328.92 -240.69 -252.93 -306.51 -357.77 -319.91 -353.60 -300.88 -256.83 -203.99 -384.28 -325.08 -216.10 -284.19 -295.56 -285.86 -426.29 -405.65 -321.45 -105.35 -231.95 -252.31 -75.74 -152.64 -218.21 -145.60 -202.52 -123.64 -87.07 -152.38 -268.65 -336.67 -534.00 -493.33 -342.60 -192.92 -177.18 -197.79 -145.28
648.50 669.03 683.19 722.28 704.88 667.92 699.70 745.01 712.30 743.98 810.47 740.75 724.32 742.42 809.45 736.64 668.01 772.99 783.11 749.90 756.71 831.00 832.56 788.11 709.19 779.82 745.46 630.35 652.73 724.90 736.07 705.36 717.14 647.67 586.84 609.96 632.82 609.69 656.15 592.18 586.22 673.62 678.42 624.55 707.70 602.31 592.15 339.98 246.46 251.86 230.99 244.66 396.46 450.74 377.00 532.70 582.64 644.28 540.89 486.90 530.18 498.83 416.72 229.37 129.85 36.31 -42.66 0.29 -142.53 -159.15 -168.41 -6.94 33.71 207.62 325.62 474.57 340.91 405.32 268.26 250.45 118.42 262.20 330.66 320.93 278.57 127.89 209.62 215.50 206.82 217.30 -39.20 6.51 -54.45 70.41 432.82 885.25 1115.65 771.09 1223.39 2590.61 2121.17 1141.13 990.74 951.74 987.01 556.90 389.14 268.01 280.77 249.56 415.43 459.78 472.39 221.55 75.84 174.75 826.92 1994.53 1584.98 457.60 -40.57 -95.88 -8.77 206.48 575.64 747.32 221.14 -16.71 115.32 -15.37 -39.76 -41.29 -123.40 -67.28 -215.43 -132.56 -226.85 -68.18 -249.61 -206.01 -180.67 37.88 -200.28 1142.34 311.12 -213.31 -173.96 -222.41 -129.88 -190.77 -209.26 -193.14 -252.72 -118.10 -106.39 -238.22 -210.65 -290.60 -294.59 -365.83 -308.78 -353.31 -151.15 -335.85 -286.48 -166.35 -173.19 -137.02 -172.38 -258.88 -287.21 -122.44 -124.66 -402.65 -337.12 -188.47 -226.84 -203.63 -279.99 -254.52 -331.16 -300.18 -191.66 -303.62 -117.38 -253.26 -180.07 -232.65 -339.27 -275.91 -282.96 -338.57 -335.12 -269.60 -278.56 -186.83 -227.11 -408.67 -218.42 -153.22 -161.77 -160.99 -233.23 -190.60 -149.42 -247.19 -98.14 -221.69 -230.81 -265.53 -53.81 -207.90 -260.35 -296.81 -140.66 -173.94 -333.95 -293.11 -334.84 -231.57 -220.66 -364.59 -241.02 -272.22 -315.85 -244.05 -336.92 -347.70 -254.04 -226.33 -178.51 -94.29 -167.20 -186.66 -170.19 -224.32 -173.18 -164.63 -124.44 -262.28 -235.25 -310.44 -309.15 -307.24 -314.08 -360.71 -376.11 -272.95 -316.63 -291.52 -234.05 -324.72 -416.79 -443.54 -399.60 -343.65 -277.04 -262.38 -346.42 -263.04 -207.72 -192.15 -199.48 -194.34 -274.95 -266.89 -124.71 -136.43 -0.74 -71.93 -314.80 203.62 -90.96 -56.47 120.16 92.21 -247.03
703.30 717.59 743.56 745.52 760.28 705.93 718.52 745.23 714.97 748.16 737.10 770.35 801.72 754.61 812.03 815.99 770.15 764.61 834.25 954.65 824.14 771.83 798.85 782.54 773.78 812.12 752.47 707.80 825.60 821.59 790.58 824.00 723.78 714.45 613.76 586.41 601.40 627.36 623.81 918.87 1003.92 923.63 801.66 678.26 277.94 285.44 263.23 457.28 484.76 477.85 476.62 569.78 498.19 453.00 615.44 767.82 309.52 90.67 365.70 159.62 243.06 197.75 133.80 114.70 144.09 258.56 294.60 300.18 443.88 15.49 367.29 174.06 157.38 150.81 281.94 264.91 201.00 117.69 131.32 295.12 19.94 93.19 241.80 154.56 210.44 234.83 208.92 139.25 84.00 156.59 151.10 48.16 -111.53 30.02 58.29 355.82 687.89 643.36 594.51 973.37 931.54 1622.19 1488.21 1717.97 1689.03 445.26 288.75 335.06 246.06 290.72 285.27 986.90 613.52 303.46 133.37 204.88 644.89 1036.32 1562.24 1114.94 99.26 155.91 783.42 709.58 283.80 -10.32 -188.09 -169.79 -7.57 -80.99 -157.84 -155.18 -216.51 -162.16 -242.16 -323.29 220.79 1000.82 381.66 -18.42 74.34 2.49 -262.02 -264.05 -206.12 -176.40 -115.63 -129.69 -89.10 -195.19 -182.82 -39.55 -229.77 -173.77 -165.45 -163.35 -329.78 -293.08 -161.63 -334.85 -250.44 -293.29 -253.32 -254.50 -216.03 -58.67 -108.18 -47.82 -188.56 -212.70 -165.44 -105.70 -207.37 -312.65 -265.93 -246.20 -349.26 -254.78 -268.79 -243.90 -256.20 -235.72 -298.32 -332.84 -155.40 -330.09 -214.46 -241.55 -253.39 -318.35 -304.66 -312.21 -276.36 -60.16 -208.42 -83.04 -295.71 -275.76 -234.85 -276.55 -232.72 -95.84 -258.87 -197.02 -209.96 -158.62 -141.33 -205.93 -234.59 -165.01 -210.78 -213.24 -238.65 -239.74 -150.63 -136.73 -292.48 -425.48 -607.09 -403.80 -166.19 -229.53 -299.17 -186.51 -231.22 -211.15 -248.82 -234.58 -230.62 -141.87 -393.69 -269.87 -178.44 -68.13 -100.21 -118.37 -98.39 -27.31 -70.36 -258.56 -278.16 -314.91 -310.54 -309.21 -255.35 -387.25 -378.39 -368.57 -355.59 -307.61 -250.99 -384.94 -371.27 -508.02 -464.21 -405.57 -288.49 -172.42 -205.44 -247.98 -253.33 -183.18 -264.35 -180.88 -112.29 -106.24 -121.62 -111.40 28.24 -113.79 -136.83 -18.40 -146.25 -93.40 -132.53 -197.17 92.00
708.76 730.23 755.45 765.86 798.54 767.90 771.21 768.54 736.78 716.75 745.28 804.43 781.49 780.39 830.93 804.26 836.48 844.00 797.17 879.29 788.94 680.90 789.27 847.94 823.04 851.42 848.83 822.20 869.62 843.62 739.94 809.28 732.01 663.78 589.42 650.32 674.28 866.44 799.74 406.27 795.49 354.48 347.57 411.24 509.59 481.08 569.20 487.00 586.22 630.94 588.32 471.32 338.53 258.95 272.14 244.35 194.97 104.59 114.24 205.44 224.87 574.43 648.30 496.28 395.41 513.19 597.55 431.09 421.98 -12.49 232.03 134.14 -15.51 -10.38 192.04 202.61 118.86 225.54 80.70 238.85 65.31 60.55 227.09 194.93 261.72 209.22 237.84 142.32 107.87 207.75 377.84 155.87 -80.45 105.54 -26.01 -2.84 249.29 605.76 676.34 678.09 687.43 1033.01 1415.40 1822.96 1884.57 1065.40 362.72 258.92 183.93 207.41 242.64 305.35 283.88 275.26 274.33 344.11 179.94 151.78 320.24 355.84 283.53 2059.82 2294.03 464.45 -10.02 -157.77 -178.98 -223.66 -25.95 -141.87 -192.02 -197.84 -216.14 324.84 912.59 1047.21 278.51 774.83 139.65 49.40 -78.00 -50.99 -144.85 -189.85 -139.76 -179.84 -122.00 -135.48 -148.98 -164.03 -121.72 -169.15 -224.36 -209.71 -212.30 34.68 -267.59 -212.71 -172.44 -275.20 -224.82 -280.49 -271.50 -214.60 -212.97 -53.96 -145.39 -205.78 -319.57 -235.02 -133.98 -215.13 -331.71 -342.28 -297.76 -241.48 -108.03 -151.05 -177.82 -226.79 -207.21 -189.74 -278.67 -259.90 -102.28 -249.60 -212.86 -70.72 -194.66 -251.50 -143.44 -142.35 -188.26 -192.59 -245.65 -211.61 -311.42 -316.80 -233.79 -241.45 -307.05 -233.73 -346.06 -203.13 -218.29 -135.99 -203.34 -156.80 -64.52 -110.22 -175.12 -177.75 -265.67 -241.07 -120.21 -65.49 -319.77 -297.23 -494.70 -402.44 -241.68 -315.54 -291.53 -214.30 -300.14 -339.79 -310.58 -249.40 -222.58 -183.85 -384.99 -314.02 -235.32 -293.36 -105.81 86.30 34.75 -183.27 -185.08 -299.50 -178.38 -287.66 -272.69 -336.59 -309.59 -416.89 -319.33 -345.76 -326.80 -304.14 -382.81 -416.30 -526.94 -507.78 -483.78 -436.43 -364.03 -200.31 -193.38 -245.69 -166.18 220.94 15.89 -108.19 -137.37 -204.12 -135.89 -125.80 -52.04 -39.66 -75.00 -191.36 -160.03 38.40 -104.41 -199.95 -255.47
760.99 760.16 757.98 782.39 777.47 811.81 796.25 804.22 766.84 762.22 756.40 865.51 786.06 830.01 833.70 818.83 832.31 845.67 874.05 827.77 799.52 702.00 698.80 849.64 784.25 860.31 859.71 806.00 787.78 775.36 791.02 691.51 662.15 634.16 646.74 669.59 510.07 454.39 416.74 409.21 544.52 583.67 524.52 734.72 880.57 655.03 662.35 395.61 316.85 301.25 269.70 291.56 281.99 245.87 285.93 469.56 467.98 640.32 590.30 707.60 791.30 627.28 578.88 467.48 220.71 266.70 322.57 279.08 300.24 117.61 138.74 5.64 -31.22 -19.26 146.22 187.41 102.01 162.76 111.41 143.68 106.85 123.40 123.18 223.43 327.39 240.86 308.16 292.36 136.00 430.46 213.33 188.65 59.01 146.75 185.48 29.14 222.69 580.78 723.59 719.86 992.17 950.06 1022.64 971.96 1107.36 1429.19 760.43 919.44 946.09 210.31 246.51 630.52 344.13 344.63 455.32 334.37 213.14 179.78 111.75 -67.74 330.05 841.54 723.39 -106.71 -178.87 -115.39 197.68 586.33 151.39 -143.59 23.34 -35.45 146.31 984.33 943.75 -82.33 -321.76 177.10 420.28 755.56 470.59 290.41 2.42 6.35 -121.85 -95.74 -86.56 -125.06 -43.87 -175.83 -223.54 -221.83 -222.90 -151.40 14.05 -20.85 -130.49 -155.08 -168.24 -210.80 -150.53 -162.14 -256.42 -398.77 -287.84 -201.96 -336.54 -222.46 -121.65 -210.06 -196.02 -263.61 -395.18 -279.52 -204.84 -133.11 -112.20 -173.49 -174.26 -192.77 -206.36 -190.80 -276.64 -223.83 -51.04 -62.57 -173.01 -130.95 -105.57 -141.58 -105.60 -174.27 -204.00 -151.24 -198.40 -293.89 -369.12 -175.46 -357.71 -204.73 -187.15 -287.13 -315.86 -248.99 -168.88 -43.52 -56.67 77.03 -28.83 -129.67 -194.51 -197.18 -240.95 -259.15 -129.50 -122.15 -357.77 -369.89 -272.95 -226.79 -229.36 -294.13 -255.88 -284.39 -216.48 -245.48 -262.53 -280.34 -312.48 -256.78 -200.32 -227.05 -131.60 -127.39 -157.44 -29.95 -53.76 -152.14 -165.21 -151.20 -165.58 -291.56 -326.94 -284.42 -327.67 -415.23 -411.55 -379.08 -479.38 -435.34 -479.33 -430.83 -336.51 -395.47 -459.89 -342.62 -344.82 -253.45 -156.02 -260.16 -80.02 -33.47 -184.80 7.38 -59.75 -181.67 -44.26 -181.88 -113.47 -52.03 -129.35 -245.98 -207.68 -6.93 -101.06 -89.93 -308.92
765.03 773.55 766.97 768.13 787.48 809.65 833.47 843.23 819.29 837.50 844.06 809.05 783.21 795.11 818.70 855.94 832.06 834.47 855.53 848.52 847.29 856.33 861.95 824.89 845.24 1003.45 848.66 790.95 824.60 692.51 638.34 699.37 639.35 787.04 796.94 670.90 439.39 471.23 678.51 758.94 773.13 874.12 550.21 554.99 451.53 438.98 400.42 470.77 414.56 343.19 483.57 511.09 501.78 576.24 613.90 522.51 394.70 280.85 312.06 458.58 484.49 446.71 514.31 369.58 350.36 229.59 268.13 178.76 84.92 210.51 230.65 42.72 158.59 53.06 86.15 132.21 140.74 165.96 167.67 138.57 122.38 100.17 101.15 100.84 204.28 313.31 373.79 377.70 272.20 418.68 414.93 426.56 96.34 198.69 134.53 127.83 67.71 446.52 1030.20 1881.74 2389.90 1109.40 1019.38 948.94 948.50 1058.17 1269.49 1919.52 1775.63 501.05 558.96 1075.26 1132.28 977.74 883.94 1111.00 1018.05 370.77 387.85 65.13 171.14 -63.89 -167.77 -198.01 -12.72 257.64 2001.01 1979.08 931.87 818.13 1559.91 1414.46 1400.14 1287.78 762.37 698.42 181.59 901.48 637.74 406.83 -75.91 223.45 -129.21 -135.97 -164.34 -200.30 -85.63 -131.08 -117.71 73.56 -238.63 -293.14 -231.87 493.16 222.61 -30.29 -206.54 -122.81 -261.41 -232.59 -242.97 -299.53 -225.75 -363.86 -50.10 -41.32 -143.44 -150.31 -263.33 -113.25 -56.55 -166.37 -479.63 -279.68 -151.92 -198.42 -181.04 -222.80 -208.80 -281.77 -211.01 -198.31 -184.35 -142.45 -153.73 -202.19 -130.47 -218.45 -225.73 -266.76 -249.09 -166.65 -188.17 -229.34 -266.71 -246.23 -292.04 -201.97 -254.02 -142.16 -179.79 -162.22 -219.22 -226.47 -140.40 -15.02 -26.94 -70.92 -116.80 -181.94 -283.53 -335.62 -242.57 -295.73 -107.12 -61.62 -294.86 -490.18 -329.93 -351.24 -260.20 -306.08 -289.75 -261.84 -179.54 -285.10 -197.17 -126.50 -288.22 -227.43 -94.07 -198.92 -163.50 -76.30 -101.93 -100.83 -122.16 -217.30 -248.29 -234.66 -244.36 -286.70 -283.19 -250.34 -346.23 -403.70 -492.45 -396.37 -456.91 -414.12 -506.23 -451.26 -418.46 -459.91 -398.17 -325.32 -204.22 -167.22 -199.23 -267.82 -273.89 -243.36 -194.06 -174.54 -237.87 -170.62 -242.64 -223.86 -175.42 -141.95 -0.92 -148.13 -277.17 -107.24 -196.21 -222.51 -252.17
771.04 843.34 861.29 778.66 754.13 800.83 898.84 849.23 823.06 828.52 797.91 804.44 832.66 864.35 828.14 817.99 847.27 861.08 838.75 850.99 884.20 840.16 843.52 836.55 846.42 898.38 850.46 598.98 723.69 730.05 537.04 582.74 585.59 678.08 714.71 592.51 663.54 710.61 703.10 660.71 612.93 542.40 437.27 535.36 678.35 658.12 648.50 737.46 730.03 741.04 565.78 637.59 492.20 465.11 490.64 457.93 325.01 375.29 305.54 416.22 476.97 541.97 539.40 500.11 334.66 314.92 316.71 150.95 209.67 259.75 384.45 361.26 163.69 129.71 96.49 148.73 186.25 188.42 321.10 184.49 175.12 74.38 97.38 35.60 136.93 270.77 323.51 347.58 311.59 313.10 340.39 393.58 198.06 258.68 91.50 181.82 134.32 172.92 778.87 1440.88 2716.51 1878.69 1113.64 1032.14 992.58 897.89 880.52 1633.32 1384.78 604.48 1258.29 2722.04 3064.21 1836.23 516.08 1798.14 1407.25 995.80 1192.18 575.81 119.14 73.85 95.03 222.24 237.46 668.75 1911.54 1145.56 838.56 658.36 987.15 1504.95 1629.16 421.65 681.55 -66.82 129.55 204.20 49.02 21.39 54.26 80.29 8.34 -105.45 -56.33 -156.54 -76.34 -187.89 -206.00 -150.02 -130.80 -227.01 -263.74 -134.91 73.84 -112.58 -317.30 -173.67 -226.52 -190.20 -131.63 -222.05 -266.69 -229.71 22.43 -153.13 -123.33 -15.23 -154.02 -229.04 -126.14 -352.26 -379.28 -176.89 -170.99 -250.51 -179.55 -181.00 -185.55 -235.80 -217.23 -237.25 -195.15 -167.02 -209.38 -140.15 -179.06 -123.27 -158.95 -249.91 -167.70 -137.02 -239.19 -251.59 -148.27 -13.09 36.35 -60.07 -182.73 -236.09 -264.46 -296.21 -118.42 -158.01 -138.49 -106.47 -56.41 -141.67 -86.87 -189.92 -275.31 -335.27 -255.33 -246.34 -184.34 -76.95 -380.95 -567.27 -364.11 -285.60 -312.72 -284.51 -276.62 -221.88 -309.65 -205.56 -190.31 -170.78 -124.97 -107.38 -179.92 -187.57 -111.70 -140.15 -33.96 -152.11 -84.23 -147.10 -277.13 -207.62 -245.44 -196.37 -276.32 -372.86 -400.52 -419.99 -494.82 -375.54 -436.34 -388.26 -303.65 -338.99 -528.88 -535.97 -392.47 -390.19 -237.79 -197.87 -190.03 -290.72 -328.77 -305.12 -323.40 -236.74 -294.76 -189.74 -265.95 -201.89 -152.77 -152.72 -119.15 -193.30 -231.79 -253.63 -288.95 -111.08 -234.60
767.84 789.21 836.93 864.48 815.59 854.40 890.53 837.83 829.53 837.06 775.34 781.24 853.84 860.34 842.54 856.32 843.63 849.61 871.69 903.34 890.90 880.09 890.93 913.53 841.91 795.21 836.34 762.78 700.69 840.75 677.63 590.00 853.77 887.32 888.04 764.17 683.84 540.97 456.98 598.16 676.68 598.10 694.11 809.46 875.37 812.30 902.99 648.89 629.94 588.77 440.98 506.32 505.89 580.52 1052.85 1576.37 648.43 359.48 401.55 358.17 430.06 426.92 477.73 460.00 346.23 370.28 337.42 172.76 290.93 211.01 385.21 414.22 296.17 234.96 163.34 184.24 211.03 134.89 237.56 179.58 81.50 63.46 116.67 55.50 142.61 259.27 309.79 319.30 263.60 274.50 343.07 323.89 309.77 197.85 142.31 143.28 168.43 154.84 350.34 731.24 1887.34 2747.66 2627.38 1411.40 1211.60 1531.95 1000.89 699.58 654.25 781.92 1168.85 2079.23 2087.10 1395.45 360.52 255.41 361.38 245.47 952.43 981.89 1826.61 1598.80 1297.67 1506.63 1417.71 1309.93 444.31 782.59 719.03 123.30 191.33 198.53 516.01 -12.14 -20.86 -16.01 17.71 119.79 26.60 175.62 43.58 158.94 227.38 -126.68 -27.42 -162.52 -95.14 -57.73 -240.56 -148.07 -187.04 -139.34 -238.58 -66.37 128.64 -2.89 -185.94 -158.33 -156.74 -137.38 -19.77 -150.94 -171.96 -133.40 18.97 -175.65 -172.39 0.08 -86.83 -178.53 -103.14 -408.96 -454.33 -196.92 -74.77 -221.62 -137.13 -177.62 -188.27 -238.15 -211.85 -272.61 -166.48 -222.60 -311.96 -176.94 -218.59 -249.41 -232.99 -196.37 -46.48 -170.56 -185.11 -187.70 398.03 -123.37 -98.31 -129.72 -161.76 -179.17 -141.02 -231.17 -255.48 -252.11 17.45 -13.22 -123.30 -145.15 -179.23 -275.47 -378.07 -257.09 -252.62 -295.00 -286.81 -190.30 -22.82 -266.64 -434.35 -182.58 -361.36 -258.03 -287.85 -197.08 -293.65 -192.16 -189.58 -241.24 -159.81 -130.40 -126.84 -213.13 -232.92 -187.65 -169.14 -95.15 -159.98 -326.41 -269.74 -224.64 -141.89 -189.46 -272.77 -284.38 -381.77 -316.94 -280.13 -218.67 -215.54 -194.86 -199.03 -298.23 -498.67 -385.72 -375.59 -387.61 -346.14 -355.87 -266.53 -353.41 -344.40 -278.50 -203.73 -322.71 -415.66 -289.16 -295.57 -218.79 -198.12 44.07 -126.38 -213.95 -142.28 -323.77 -317.86 -77.90 -350.18
752.01 777.94 792.66 801.31 814.10 855.11 828.84 809.79 833.33 832.06 827.69 817.48 766.15 876.18 866.13 825.94 862.09 880.72 1639.54 1640.81 1034.62 1004.79 940.31 990.48 840.05 798.83 865.86 893.56 671.06 809.39 778.46 799.70 778.81 780.19 717.74 703.10 647.63 791.69 799.61 951.18 903.83 818.73 751.53 717.67 679.65 678.12 723.72 559.26 489.65 476.28 514.09 692.79 1709.29 1815.50 1216.43 1760.94 706.65 458.75 467.24 447.37 459.90 333.88 433.13 449.52 370.00 384.53 262.51 257.47 273.18 244.26 309.55 434.42 400.39 232.58 175.30 156.57 106.09 167.08 139.91 144.63 130.23 132.22 163.21 113.04 172.00 147.96 241.47 269.47 323.48 266.21 263.20 233.49 324.19 165.66 141.19 96.17 84.82 119.61 250.06 231.68 881.72 2376.45 2751.66 1447.35 1805.07 2422.77 1313.03 660.49 658.25 921.89 1366.82 2081.22 1719.79 821.83 204.84 248.59 168.02 259.61 56.65 683.90 1157.38 1387.10 1420.47 1360.60 1737.55 283.74 81.41 173.06 243.93 47.22 50.58 64.43 212.49 53.27 53.09 46.57 116.98 292.11 180.06 242.86 82.21 48.53 20.01 -66.64 -81.28 -128.05 119.46 29.97 -1.92 -139.15 -80.60 -120.72 -274.29 -5.70 167.43 -94.21 -134.40 12.39 -70.27 -124.23 -2.41 -47.22 -55.96 -0.34 101.50 -35.77 -131.98 -96.74 -72.06 -64.81 -118.99 -303.93 -103.35 -194.26 -26.34 -228.77 -174.31 -197.76 -215.88 -266.58 -271.70 -203.40 -157.38 -184.06 -231.91 -164.34 -202.66 -204.75 -207.90 -125.73 -84.62 -186.72 -156.67 -164.28 -27.70 -711.98 -166.44 -95.35 -106.08 -193.50 -213.80 -255.45 -230.73 -177.51 -122.23 -111.46 -192.21 -141.50 -162.75 -257.84 -285.31 -219.76 -239.59 -334.17 -299.14 -238.06 -337.28 -417.88 -389.90 -171.59 -274.56 -309.02 -257.39 -315.09 -280.63 -249.09 -357.90 -239.09 -66.59 -177.36 -181.11 -517.78 -356.55 -266.02 -109.24 -141.71 -125.16 -223.12 -245.13 -192.68 -215.75 -348.31 -373.79 -464.07 -307.77 -262.88 -350.24 -327.27 -308.76 -339.43 -353.55 -257.00 -342.95 -381.46 -441.59 -327.35 -255.42 -298.69 -279.76 -391.34 -343.49 -356.41 -343.26 -286.34 -323.37 -261.10 -193.14 -193.21 -143.53 -138.40 -152.97 -139.95 -312.78 -396.44 -183.45 -77.02 -263.44
737.96 762.80 769.07 785.99 783.75 795.25 824.54 823.70 832.95 825.93 839.26 822.82 827.19 1937.13 2151.36 1028.29 852.43 1498.06 3539.70 2665.03 1252.14 1346.54 1805.74 1881.85 1202.53 843.02 834.50 775.88 729.54 742.59 769.33 773.62 788.87 764.96 960.72 990.91 1116.92 1003.81 870.53 843.44 810.25 702.43 627.57 686.85 642.03 645.31 610.05 689.91 539.23 517.03 492.16 584.87 797.13 601.05 571.21 568.09 496.40 480.62 450.05 464.66 520.93 400.64 348.04 442.16 462.72 323.99 350.25 382.88 323.35 196.79 346.87 382.02 336.77 331.34 326.79 403.38 139.29 104.98 162.48 127.71 136.46 173.65 247.48 127.92 174.39 87.65 178.06 134.11 127.49 264.84 199.30 350.58 317.67 310.30 180.45 90.15 69.33 41.30 60.92 200.46 634.95 1632.32 1592.92 1086.88 1975.03 2257.30 964.94 766.32 1580.07 1232.52 1697.72 2773.34 1856.71 537.02 800.07 873.85 649.17 406.77 769.68 1338.59 650.44 86.52 373.16 468.04 432.71 75.68 123.11 88.25 253.88 372.18 234.61 168.45 255.10 199.66 200.41 96.84 150.13 277.73 145.34 149.20 136.41 57.00 61.42 -1.84 -1.09 -91.47 -2.87 17.54 64.92 -93.93 57.29 -30.76 -82.32 99.93 -107.83 4.27 60.61 -71.84 -3.83 -46.39 -24.83 -42.79 131.20 146.65 92.64 209.68 230.29 9.68 -57.44 -99.34 -150.27 -111.91 -74.84 -269.87 -258.60 -257.39 -170.67 -243.93 -203.81 -206.68 -147.15 -173.05 -148.14 -216.98 -187.90 -109.47 -170.75 -141.58 -214.89 -20.50 -58.17 -138.16 -157.54 -162.77 17.96 -251.21 -117.69 -130.97 -257.11 -289.72 -259.45 -303.13 -265.29 -178.50 -186.03 -193.41 -146.70 -181.18 -177.24 -306.77 -257.60 -252.60 -169.20 -254.97 -201.74 -176.58 -147.40 -308.61 -296.50 -202.32 -266.21 -321.58 -201.55 -278.70 -305.65 -255.57 -323.86 -292.38 -137.40 -199.95 -164.02 -425.86 -244.45 -340.59 -155.90 -146.65 -57.53 -149.50 -310.80 -374.85 -280.15 -259.77 -325.88 -480.65 -421.29 -358.55 -489.97 -442.03 -397.88 -422.07 -316.26 -253.26 -261.76 -403.07 -505.46 -383.66 -145.74 -204.16 -369.67 -562.93 -386.31 -257.97 -319.33 -311.58 -287.90 -233.20 -269.19 -199.94 -272.24 -251.76 -320.91 -272.03 -288.08 -285.30 -264.41 -201.33 -186.39
731.07 752.52 770.65 787.91 790.02 798.36 817.99 855.94 829.39 831.99 829.86 819.20 841.10 1696.04 1347.42 853.32 825.48 1288.88 3090.86 2151.57 1331.22 2221.05 4275.80 3867.37 1725.94 941.89 881.50 823.33 830.37 938.88 981.20 989.83 952.14 937.87 1133.58 1316.94 1709.39 1584.18 1111.26 803.46 706.04 687.94 664.30 665.98 584.73 637.90 653.61 597.07 568.35 557.07 553.97 528.45 559.36 493.79 544.68 552.98 503.25 498.89 440.95 587.91 535.91 429.33 417.12 426.98 420.35 422.32 481.71 436.76 442.44 266.99 337.54 373.22 289.10 306.39 258.25 396.02 186.68 162.11 172.50 215.14 107.61 160.88 172.65 119.15 70.31 205.88 60.50 142.27 183.69 229.06 159.25 336.38 382.73 269.63 182.72 247.53 149.94 48.19 222.86 108.10 748.86 1662.82 912.37 1160.33 1717.17 1137.67 338.59 664.04 1299.35 332.00 658.52 723.11 719.67 283.67 739.15 410.06 523.07 635.22 1830.79 3282.00 1695.50 527.40 357.00 436.65 286.71 195.00 134.82 167.47 310.47 243.53 121.44 227.26 213.51 155.44 353.08 167.89 219.40 129.17 141.34 429.16 1696.33 82.36 -64.60 -84.23 -0.43 74.27 60.55 109.58 -16.72 32.49 103.69 -3.03 -47.97 126.92 -114.62 118.69 111.92 -40.74 -14.26 -44.72 -38.95 20.25 68.04 47.33 70.16 109.70 180.91 -128.17 -112.23 -119.80 -173.00 -88.93 -124.59 -337.06 -349.42 -112.51 -107.00 -185.15 -205.52 -139.70 -195.53 -196.95 -105.69 -149.18 -216.88 -161.24 -146.20 -190.30 -188.37 88.24 26.63 40.74 -58.36 -87.95 -675.44 -143.57 -146.79 -187.98 6.70 -301.33 -183.72 -205.17 -181.25 -206.20 -210.02 -135.26 -183.46 -182.64 -134.85 -167.74 -288.16 -275.95 -254.53 -264.95 -259.63 -244.86 -209.59 -115.29 -270.33 -310.83 -228.98 -310.77 -386.61 -221.26 -235.92 -257.36 -339.96 -367.24 -256.97 -158.45 -170.48 -326.18 -103.23 -146.17 -67.01 -148.98 -166.36 -246.11 -367.52 -316.40 -206.25 -163.09 -230.05 -399.02 -450.27 -464.35 -480.83 -396.13 -266.83 -271.35 -310.77 -238.61 -206.25 -266.45 -347.79 -313.40 -240.45 -116.95 -400.54 -504.16 -349.67 -245.41 -333.37 -131.89 -13.21 -164.53 -217.79 -292.61 -301.31 -263.57 -302.83 -275.05 -333.74 -208.88 -202.44 -223.89 -300.27
727.78 745.31 776.20 782.60 783.63 803.26 802.31 806.10 820.36 780.99 841.68 843.32 838.24 813.83 811.04 824.86 844.44 912.17 1080.11 949.04 1156.83 2021.76 3538.68 2472.98 1187.19 887.19 910.48 859.01 867.63 1046.41 2336.49 3264.69 1984.34 1223.13 1583.01 2858.12 3784.47 2818.28 1660.60 1176.76 881.93 728.18 718.96 687.40 663.07 672.81 794.65 663.56 601.80 601.95 606.98 537.81 498.79 534.70 675.09 583.72 575.28 560.06 543.05 510.43 727.03 579.17 579.04 560.33 492.72 419.53 528.50 473.83 340.21 402.49 332.07 472.74 383.83 274.72 195.39 336.36 252.16 172.46 195.08 227.22 186.21 183.02 239.98 30.31 137.28 161.41 77.25 36.38 248.15 258.92 150.46 366.09 435.00 419.72 295.81 143.13 239.20 50.32 143.67 24.04 1216.10 1033.16 760.90 418.56 1142.95 312.78 265.17 141.64 225.94 287.56 178.02 192.11 211.56 288.98 301.39 425.19 312.54 236.35 1321.84 2969.84 1959.64 576.18 391.58 136.33 267.29 211.68 86.87 173.14 329.05 297.60 82.09 87.17 316.14 30.93 50.81 242.53 88.74 -27.17 -42.45 31.77 -67.88 13.20 -93.24 -69.73 7.48 -1.60 128.68 190.89 30.18 215.11 34.25 36.14 -6.60 105.71 -22.09 10.69 45.62 -52.92 -51.41 -33.53 142.65 -94.38 -88.68 65.78 3.13 -6.93 -78.29 -36.22 -97.90 231.90 -46.24 -11.29 -136.93 -202.66 -196.75 -10.87 -226.06 -144.34 -83.54 -73.09 -95.56 -352.51 -267.84 -59.15 -139.14 -58.48 -27.46 -102.77 -156.38 -168.17 -52.91 -113.86 -175.00 -112.13 -195.32 -106.18 -225.99 -237.37 -208.18 -262.11 -156.90 -184.96 -234.27 -89.11 -147.19 -125.04 -188.51 -192.16 -120.12 -117.31 -194.23 -217.61 -194.39 -118.81 -187.38 -196.81 -157.88 -86.81 -234.46 -306.64 -223.99 -335.29 -434.17 -255.87 -245.57 -323.20 -359.79 -280.39 -195.12 -279.76 -391.21 -294.87 -118.49 -248.18 -197.77 -281.06 -300.94 -242.61 -220.38 -156.52 -188.56 -210.62 -313.96 -332.63 -432.86 -370.13 -286.99 -204.33 -245.71 -299.46 -351.91 -410.44 -229.11 -302.17 -284.11 -363.79 -361.33 -172.09 -447.87 -341.03 -330.15 -190.21 -239.80 -148.46 -121.32 -201.11 -237.82 -216.79 -314.63 -275.77 -293.78 -329.14 -349.46 -292.20 -210.83 -221.09 -268.98
706.59 718.78 711.64 759.16 779.10 775.78 803.17 804.35 808.78 807.70 813.43 817.84 784.40 780.11 817.26 809.60 824.96 840.08 873.15 933.74 1034.20 1246.52 1368.34 1401.17 1232.74 977.76 880.83 890.08 1009.18 977.09 1098.53 1989.64 1389.68 1356.61 2010.72 3456.43 4166.54 2440.56 1419.16 2147.33 1064.74 775.47 597.32 670.28 722.78 663.64 640.34 699.23 600.82 583.55 685.85 684.39 569.48 464.75 446.96 554.33 550.44 621.70 590.87 554.13 590.98 534.19 622.70 521.36 568.86 431.67 323.98 445.39 542.21 429.20 357.89 503.38 418.91 437.69 212.35 358.30 355.62 294.33 177.18 208.44 169.25 182.24 78.34 201.28 271.12 230.58 173.06 97.14 154.22 288.21 202.53 375.51 299.73 235.84 173.40 136.95 178.90 59.89 103.65 728.99 1586.87 1032.14 55.71 -10.76 619.20 1352.70 625.62 537.89 273.54 242.93 89.54 216.73 333.65 336.52 480.49 518.52 716.68 369.87 476.50 780.69 432.32 20.77 152.73 159.80 484.72 348.09 290.66 79.14 116.45 133.35 53.38 49.99 167.97 110.13 295.17 474.84 -7.47 -65.28 63.16 -4.75 -215.83 26.82 145.76 406.59 369.55 267.44 53.63 200.89 86.98 105.27 43.21 21.53 -24.16 46.24 -5.07 362.85 395.98 -60.96 17.09 -112.45 842.23 317.02 111.15 -44.93 -92.86 -5.74 -66.50 -87.58 -134.09 158.89 -118.91 -77.06 -34.18 -37.28 -95.15 -54.90 -25.24 -162.95 -53.69 -30.66 -91.76 -230.09 -196.34 -122.71 -179.59 -105.42 -56.01 -117.01 -121.54 -189.84 -77.89 26.82 -86.32 -146.82 -204.96 -142.34 -170.44 -212.74 -187.25 -205.81 -51.33 -187.44 -132.42 -197.81 -164.87 -104.19 -192.04 -164.03 -154.86 -137.98 -180.47 -210.74 -282.71 -216.40 -256.46 -239.80 -222.35 -98.49 -151.79 -173.35 -269.06 -294.12 -274.38 -229.73 -274.34 -327.06 -304.87 -233.95 -178.36 114.32 -454.41 -193.91 -86.38 -273.52 -347.51 -357.98 -483.33 -480.57 -330.41 -328.21 -194.38 -118.74 -368.06 -326.17 -261.07 -276.20 -173.53 -266.09 -321.67 -101.82 39.65 -260.74 -190.74 -272.82 -262.10 -325.76 -347.90 -201.49 -320.42 -338.83 -324.11 -230.02 -186.28 -189.17 -216.11 -248.29 -303.36 36.39 16.98 -372.73 -418.48 -423.54 -362.64 -294.91 -220.75 -199.67 -212.68
704.89 733.43 763.99 746.85 779.23 813.50 771.79 767.68 792.71 803.07 803.15 799.98 805.29 790.96 816.47 907.31 922.70 810.47 832.90 844.56 887.57 935.36 981.31 1097.07 1228.75 1006.95 878.37 926.39 922.93 980.54 1018.33 1036.36 1057.50 1110.69 1430.46 1916.55 2001.11 1337.39 1051.79 973.02 859.86 805.97 663.60 757.62 794.96 827.77 716.71 742.01 763.89 679.39 638.14 720.30 671.75 553.15 521.12 705.83 599.45 615.79 573.91 561.18 644.45 542.27 520.06 473.21 536.91 509.88 465.35 391.94 419.32 451.73 385.43 415.58 355.69 495.64 298.04 354.55 496.00 486.09 255.93 362.90 226.31 270.88 155.32 262.74 312.94 261.17 164.37 108.31 99.23 316.17 88.48 187.28 144.59 134.10 166.17 176.01 155.99 81.89 956.82 2814.29 1148.45 203.23 229.60 -6.38 1605.28 3374.99 2239.58 1672.34 1243.19 1118.82 363.82 836.36 1874.52 1086.13 501.46 779.33 1119.25 883.50 293.42 116.45 149.58 184.85 117.59 1627.14 2040.91 1220.54 1671.91 854.40 1153.86 670.64 560.05 1146.56 974.22 749.97 2490.29 2085.62 1494.12 1831.93 1817.93 1443.07 1411.35 2013.46 1892.84 1413.08 698.92 142.32 123.72 124.85 90.32 168.03 78.64 42.18 148.51 199.20 187.83 71.66 -20.88 -49.82 105.67 -90.49 -80.17 3.27 101.54 39.04 -20.02 -45.60 -2.68 200.96 -165.24 -141.62 -71.59 -44.61 -13.62 -69.03 -107.73 -73.20 -6.48 -148.38 -68.58 -102.32 -95.47 -61.54 -75.20 -149.33 -261.18 -229.49 -135.38 -48.15 -56.01 -195.01 -167.14 -160.57 -237.35 -293.78 -332.21 -296.30 -315.08 -7.00 -73.07 -76.63 -120.79 -164.61 -150.12 -251.64 -202.40 -172.01 -166.96 -204.77 -113.09 -40.56 -187.32 33.91 -148.73 -197.90 -195.73 -205.74 -192.06 -122.78 -200.69 -171.32 -238.93 -268.00 -299.73 -300.32 -345.35 -216.81 -258.15 -190.70 27.71 -344.69 -382.94 -252.83 -249.12 -357.55 -357.85 -432.48 -525.91 -350.16 -136.46 -364.56 -334.50 -191.56 -297.02 -281.22 103.66 -334.00 -341.38 -316.33 -351.40 -202.19 -269.62 -279.74 -281.83 -254.74 -295.49 -324.91 -397.25 -278.04 -347.08 -474.18 -336.17 -317.41 -298.28 -383.61 -206.37 -310.73 -324.71 -207.82 -181.86 -325.09 -131.52 -384.03 -399.69 -360.83 -364.32 -305.75 -203.30
712.06 723.93 736.55 756.91 719.15 758.97 748.94 734.94 777.68 792.53 774.01 782.74 784.91 791.43 954.58 1824.90 1569.62 837.16 716.71 769.23 826.59 859.75 985.32 844.52 827.95 833.11 834.68 869.91 924.93 970.66 966.13 1000.37 1027.30 1036.05 1033.26 1065.26 1055.62 968.67 921.48 891.68 745.80 745.43 721.00 769.52 866.82 912.66 818.27 835.76 765.94 684.59 740.89 737.00 699.06 687.42 618.20 671.28 572.14 618.03 608.06 615.54 616.78 652.89 501.85 469.43 456.37 524.50 390.93 414.61 393.45 336.80 427.82 453.63 304.16 366.32 259.32 316.41 526.33 553.10 351.28 374.21 320.67 279.46 193.82 305.97 222.94 283.45 197.46 258.43 169.45 274.29 11.86 109.20 217.40 105.77 53.91 129.74 154.44 177.41 921.85 1682.24 905.61 132.17 185.05 289.29 1249.11 2406.72 1762.83 444.90 327.26 1061.94 481.98 1393.37 3295.39 2154.92 1420.28 1144.61 1846.88 1921.09 926.32 1299.02 725.55 1141.79 1720.33 2651.63 1945.43 1153.10 1548.31 796.23 827.67 567.22 587.29 757.33 1160.57 1241.22 1588.25 1820.78 955.47 642.12 1282.43 407.70 151.98 278.23 88.05 220.05 118.03 256.50 134.88 108.08 166.38 260.16 293.91 116.40 137.88 244.12 203.12 315.61 295.27 35.34 -35.56 10.91 -4.84 55.63 75.00 54.15 72.23 23.93 -37.25 -76.68 -79.40 -50.97 235.27 61.04 43.63 -144.44 -74.96 -128.62 -28.86 -107.65 -197.07 -204.27 181.98 1.63 -217.59 -145.24 -61.51 -77.76 -126.04 -84.44 -60.75 -160.51 -112.50 -269.23 -283.03 259.92 160.67 -209.84 -250.02 -108.22 -80.08 -22.24 -106.65 -109.38 -126.89 -250.57 -206.11 -153.78 -142.06 -179.40 -118.47 -93.99 -157.52 -158.15 -169.72 -166.68 -115.19 -138.26 -224.49 -132.39 -176.74 -192.83 -240.82 -351.90 -301.15 -387.92 -177.31 -99.13 -149.66 -274.35 63.69 -168.91 -449.00 -385.50 -363.11 -348.77 -427.25 -420.51 -337.54 -31.49 -204.98 -300.21 -157.53 -132.59 -116.25 -359.07 -374.31 -354.88 -371.48 -341.85 -363.92 -347.10 -332.91 -287.77 -269.28 -321.34 -343.69 -302.73 -414.69 -304.35 -252.14 -438.37 -393.20 -341.60 -233.09 -217.54 -155.31 -167.22 -48.09 -201.98 -347.36 -206.56 -281.95 -409.13 -440.85 -384.48 -400.56 -181.35 -118.96
716.35 726.29 718.90 718.62 740.09 745.84 755.19 764.24 768.63 797.35 810.09 753.86 797.37 763.55 915.15 2338.40 1353.78 692.45 707.12 687.38 687.46 778.36 774.28 764.50 751.97 760.85 793.67 802.78 851.23 907.37 938.75 920.05 936.03 958.25 982.38 954.72 939.90 902.18 877.84 858.52 813.35 761.88 845.73 788.57 829.98 818.38 825.69 868.40 748.08 713.23 752.07 829.94 674.22 574.28 681.31 611.58 634.02 679.69 613.17 544.25 560.21 552.81 560.45 486.17 423.04 512.14 492.72 404.44 469.38 381.70 361.09 405.11 404.76 303.31 269.14 296.97 258.85 292.17 348.82 330.28 405.64 321.84 227.36 246.92 200.38 216.65 178.43 212.92 190.30 227.22 48.33 235.26 200.17 205.77 51.68 120.78 62.38 312.54 587.69 358.63 346.38 120.04 223.14 155.10 584.71 736.14 260.70 251.87 258.85 309.73 181.32 450.22 903.36 784.76 528.90 704.23 1230.55 1007.12 800.76 911.73 1220.83 815.27 724.32 692.35 131.77 48.91 -21.21 -92.59 70.82 67.46 64.88 -60.20 -127.33 -146.78 90.26 -7.75 -93.30 -66.19 -60.09 61.74 -55.08 145.15 22.56 407.72 129.05 249.53 166.20 116.42 221.58 433.59 450.30 317.70 170.21 168.63 248.83 266.61 253.80 80.14 67.72 -21.86 76.98 127.53 160.44 1.91 7.59 -55.39 -25.06 -13.58 316.95 280.04 20.29 -160.19 -26.70 -143.40 -69.74 -134.75 3.33 -138.80 33.63 444.95 -127.82 -101.58 -151.32 -136.39 -52.87 -151.28 -189.53 -76.65 -93.37 -241.52 -157.56 -1230.40 -198.30 -177.80 -152.40 -173.16 -56.59 -32.90 83.31 12.13 -107.02 -37.87 -224.55 -216.27 -153.17 -86.30 -100.13 -140.18 -99.61 -73.79 -117.65 -123.84 -151.97 -174.80 -150.64 -208.04 -142.99 -135.05 -153.92 -221.33 -220.80 -297.23 -328.61 -277.14 -140.00 -47.69 -388.83 -256.73 -110.88 -458.77 -233.26 -178.63 -242.06 -498.02 -525.17 -326.99 -263.46 -209.07 -297.93 -253.32 -203.81 -199.48 -352.77 -328.08 -333.86 -321.43 -351.29 -325.96 -349.74 -372.33 -299.57 -268.27 -253.18 -241.07 -258.18 -250.73 -382.28 -316.92 -335.47 -467.19 -281.21 -84.44 62.51 11.40 -138.91 -188.85 -93.95 -126.17 -272.81 -242.45 -270.87 -189.49 18.45 -250.52 -329.87 -0.74 -58.07
701.06 724.41 718.00 722.05 744.45 742.69 742.56 767.84 773.89 724.74 733.94 754.70 794.23 774.16 760.46 734.63 1991.94 837.01 730.03 742.27 698.23 734.76 676.20 724.99 779.69 718.39 720.89 732.39 757.93 823.37 836.87 846.68 858.02 865.64 865.58 889.55 890.70 885.94 872.86 855.40 868.24 795.18 844.96 856.31 954.99 853.63 818.83 832.72 836.42 790.50 683.75 832.59 775.30 604.58 729.21 577.96 581.38 614.71 564.51 561.76 697.30 475.58 549.68 532.35 456.77 472.56 459.11 438.80 461.96 437.72 436.78 324.96 399.69 361.96 267.09 311.84 325.39 294.18 375.59 282.09 306.57 322.74 329.55 227.95 211.71 165.03 89.56 347.43 208.17 179.87 97.46 170.25 4.62 145.03 55.58 113.77 77.12 189.95 111.16 26.21 164.96 144.59 276.48 180.78 207.58 244.54 253.87 339.72 288.34 281.80 408.01 292.20 358.22 200.48 400.37 296.17 278.96 183.67 249.72 237.23 282.96 194.96 120.20 -125.49 -39.05 546.40 14.13 135.55 57.08 0.78 4.76 -27.63 19.25 -76.30 -60.65 -82.16 -44.60 -41.64 2.32 140.39 56.96 279.02 46.87 262.86 107.78 192.13 165.79 164.04 73.52 273.38 171.84 374.59 188.32 46.10 133.35 292.83 151.46 87.31 149.62 -14.03 533.11 167.35 191.78 77.91 24.16 -44.25 17.09 -1.43 126.80 276.24 -126.64 -131.40 1.14 -87.39 -165.07 216.85 493.31 -156.19 -160.72 -144.18 -88.61 -163.12 -114.29 -269.71 -125.83 -203.68 -211.64 -77.99 -142.72 -40.01 -1218.38 -302.73 -145.04 -140.65 -127.11 -84.12 13.39 -39.90 -24.25 -114.19 -139.54 -17.02 -61.28 -195.25 -110.28 -119.88 -102.55 -66.75 -13.82 -36.14 -159.95 -137.85 -197.90 -287.01 -208.34 -119.63 -64.83 -162.64 -207.25 -247.65 -141.64 -192.58 -248.89 -377.10 -145.85 -92.67 -382.43 -362.82 -80.55 -368.98 -149.99 -292.29 -248.69 -366.86 -422.83 -468.92 -270.56 -233.25 -258.38 -327.82 -289.94 -270.90 -266.99 -253.17 -270.49 -242.31 -317.05 -365.19 -352.84 -106.48 -338.79 -223.11 -175.39 -238.23 -293.45 -375.28 -348.51 -372.18 -455.54 -526.80 -372.05 -345.69 -336.67 -291.74 -242.42 -363.02 -307.23 -192.90 -221.61 -284.54 -249.42 -219.93 -155.95 -368.46 -362.07 -168.35 -282.39
688.71 697.30 702.74 735.30 720.02 744.74 744.95 755.33 771.11 779.66 784.48 765.72 740.51 723.64 749.44 1053.67 2063.35 1729.57 809.39 716.05 729.07 709.72 685.26 823.22 833.65 713.93 684.10 749.56 700.84 726.44 748.46 763.39 763.96 778.88 787.78 806.80 817.59 810.78 857.19 801.64 835.75 846.71 844.89 723.82 768.18 770.40 718.56 806.56 770.44 763.33 712.27 701.22 720.86 627.25 695.18 582.06 483.89 698.99 570.34 577.73 576.03 449.10 481.52 448.12 457.04 461.44 463.35 402.19 470.00 590.49 479.00 530.90 351.17 231.94 404.67 274.48 274.24 360.27 355.44 352.71 325.81 281.79 310.11 243.84 231.49 185.89 208.87 241.88 221.41 106.33 33.98 73.86 34.88 438.57 1131.60 622.00 364.89 353.52 202.23 44.40 286.27 222.13 193.65 164.40 268.81 364.69 316.19 389.08 386.66 235.53 430.05 443.39 296.15 254.05 249.67 339.43 157.38 240.97 576.23 521.17 80.55 -2.58 303.28 -27.46 61.53 145.97 208.60 117.45 128.70 -94.06 -27.02 16.54 388.87 391.76 124.35 -51.06 29.58 81.50 -36.40 339.71 530.76 738.35 104.43 651.37 443.89 661.15 461.03 -17.79 -39.04 55.29 51.18 238.67 70.84 26.82 -22.98 121.70 13.55 12.42 44.17 -7.16 75.81 60.41 68.89 99.46 40.03 16.36 133.28 185.81 238.75 136.16 -152.29 -41.31 62.55 -51.31 -89.97 -115.82 -60.83 -95.76 -147.69 -34.02 -9.39 -84.78 70.08 -191.89 -164.31 -172.02 -4.82 -47.53 -59.69 -39.43 -266.46 -81.19 -111.70 -66.59 -3.21 -44.84 151.20 6.30 -130.77 -83.04 -140.45 -65.75 -83.17 -162.52 -135.58 -209.73 -183.04 -268.37 -212.28 -129.10 -231.61 -179.06 -230.60 -219.93 -119.91 -190.83 -184.28 -147.00 -165.30 -255.65 -232.22 -195.64 -283.07 -308.27 -214.29 -227.01 -286.24 -448.19 89.63 -152.28 -341.15 -338.48 -245.43 -326.60 -387.68 -272.45 -151.92 -246.16 -234.64 -269.95 -318.15 -163.45 -261.66 -216.41 -259.53 -318.46 -318.71 -333.09 -227.58 -255.26 -390.34 -277.87 -310.58 -419.77 -307.45 -476.69 -515.70 -396.25 -517.04 -479.95 -297.96 -307.45 -326.94 -396.78 -303.23 -345.44 -196.45 -303.49 -193.54 -249.21 -210.33 -250.43 -303.40 -380.15 -211.48 -254.53 -313.45
728.31 735.71 723.29 744.12 742.70 729.45 724.64 758.61 760.62 798.04 782.25 778.77 982.18 896.80 978.83 1364.56 1842.10 1614.04 1166.08 748.82 691.29 690.38 738.53 1129.29 890.22 815.58 742.46 742.99 1061.16 718.36 693.60 682.32 682.38 694.23 706.12 734.16 760.00 760.45 757.61 795.76 847.17 792.19 814.66 848.83 741.16 712.35 710.48 726.65 731.85 703.91 691.05 617.72 649.56 675.61 764.31 693.57 658.60 831.24 652.75 568.74 534.29 354.95 514.01 536.04 443.26 455.60 521.16 394.09 448.35 497.28 436.53 518.36 364.82 243.42 284.27 318.04 339.46 298.79 433.21 312.38 386.93 321.94 374.09 281.49 336.89 179.75 229.96 147.46 201.41 216.65 44.45 25.18 96.54 1103.97 2581.12 1504.23 1428.27 1178.02 869.53 177.76 211.39 147.31 192.08 344.44 313.32 261.97 321.21 375.22 458.15 345.93 809.67 409.48 340.55 269.09 386.75 382.65 251.80 179.63 1072.49 2384.51 715.64 730.15 1202.82 832.10 1250.46 1753.40 1958.53 1502.49 1215.75 1437.88 1716.86 1882.60 2053.32 1557.51 1170.44 780.96 782.55 1084.60 1280.63 2284.50 2721.29 1654.32 1523.30 916.39 414.64 -121.22 -93.72 257.24 570.95 -97.24 -61.39 58.42 148.64 -56.58 -67.81 -27.69 51.94 11.20 382.76 335.34 160.50 41.44 508.29 336.43 194.44 60.97 110.37 265.94 371.62 143.89 -45.10 22.21 5.16 1.59 -49.12 -30.96 -71.80 -11.27 -35.35 -60.79 -10.28 -21.72 -8.05 -73.20 -88.90 -56.13 -73.74 -36.26 7.56 4.72 28.25 -80.02 -83.95 -95.50 33.06 123.46 129.87 -19.25 -95.09 -41.86 -100.08 467.27 -57.48 -114.77 -181.05 -23.89 -127.18 -198.43 -145.72 -134.42 -200.71 -217.35 -235.47 -167.87 -212.99 -137.54 -142.95 -99.94 -148.63 -233.93 -250.81 -189.60 -339.67 -224.70 -134.26 -252.67 -318.46 -377.01 -112.65 -181.29 -409.94 -415.00 -327.57 -323.86 -347.94 -259.85 -248.87 -182.57 -176.63 -269.20 -265.37 -257.52 -182.42 -252.95 -333.82 -327.91 -297.81 -338.29 -273.09 -337.01 -306.27 -286.55 -327.93 -358.84 -385.10 -585.84 -588.35 -293.33 -267.59 -429.77 -412.79 -297.20 -322.32 -485.67 -413.31 -353.43 -203.21 -296.97 -257.06 -209.76 -330.49 -284.63 -266.89 -153.82 -215.07 -275.84 -191.22
773.25 759.37 758.35 721.17 757.52 750.72 766.31 775.12 817.22 797.76 825.53 833.22 841.04 1404.85 1406.37 1827.14 1753.76 1774.13 1915.29 1205.16 727.56 789.99 810.94 930.42 830.39 856.74 818.85 1190.56 1856.77 819.06 619.68 617.88 587.40 589.23 591.40 574.64 602.11 667.04 664.69 630.80 711.34 736.89 786.40 836.68 1000.76 746.22 712.15 702.35 716.71 684.89 686.52 705.82 700.74 697.80 731.23 718.00 734.70 702.55 690.77 626.78 626.93 432.15 467.84 563.51 443.87 448.50 431.34 484.87 486.63 443.07 424.12 539.47 319.20 408.35 288.31 292.98 434.67 347.09 279.01 321.26 443.95 473.96 458.90 106.59 280.05 346.67 223.87 170.15 162.96 153.25 14.60 49.97 106.22 991.61 2059.36 2884.60 3068.94 2665.19 1925.23 768.14 195.49 69.94 305.34 219.20 188.79 265.07 308.12 317.15 367.68 345.74 397.44 451.26 957.88 380.52 393.00 402.72 171.99 -149.56 1323.00 942.77 777.40 699.77 205.10 373.13 131.40 375.72 698.09 763.26 1029.35 1163.91 706.73 435.11 273.03 177.03 -23.16 30.94 281.57 450.59 706.96 1271.20 1178.93 172.35 -72.43 -161.56 -173.57 -29.23 306.11 387.04 1501.98 1759.68 1519.22 733.17 817.46 1874.23 1365.91 1011.98 579.57 134.93 134.39 1580.89 387.80 196.73 22.98 93.04 134.40 91.55 190.67 405.38 500.40 116.68 73.22 123.23 66.15 57.91 -31.82 -42.76 -44.98 248.64 109.76 -62.63 36.80 -45.11 -77.76 -89.23 -9.77 4.30 -81.75 33.13 7.55 -47.26 -26.84 -14.27 -41.77 -79.28 275.91 83.20 -41.82 53.38 -116.14 12.66 -77.34 -99.85 -199.09 -80.48 -213.43 -36.55 -51.53 -144.65 -141.00 -76.24 -69.81 -59.76 -187.80 -161.79 -195.26 -191.09 -133.68 -142.24 -213.03 -152.68 22.15 -217.62 -173.87 -134.18 -180.14 -180.17 -110.16 -211.81 -263.91 -260.81 -378.89 -413.27 -306.48 -196.39 -255.85 -170.63 -303.19 -142.17 -169.14 -241.09 -227.12 -324.57 -288.27 -216.01 -310.64 -374.09 -318.18 -363.87 -414.06 -369.19 -270.76 -377.35 -322.47 -308.93 -471.50 -584.03 -461.56 -426.77 -359.98 -405.39 -419.51 -376.91 -406.35 -428.52 -405.32 -295.71 -258.28 -196.72 -184.31 -259.58 -298.58 -265.01 -219.70 -176.45 -305.49 -258.39 -269.86
777.25 803.85 773.74 804.16 822.03 805.90 811.94 820.20 865.05 828.37 886.13 926.96 1099.07 1657.68 2121.87 1815.16 1973.51 1935.05 1929.34 2384.76 1070.61 921.22 917.87 850.41 929.88 876.29 848.06 1423.57 1969.47 634.05 591.60 694.66 568.37 518.85 504.92 504.97 487.75 551.58 619.07 632.26 639.44 655.55 690.21 744.55 821.77 729.94 701.75 701.96 733.26 682.01 652.03 653.07 714.54 715.03 714.73 690.80 720.74 721.54 748.03 630.29 562.92 505.76 778.06 560.27 605.34 529.39 438.53 402.50 438.89 456.02 435.15 377.46 390.88 490.31 376.36 333.06 265.17 362.07 448.20 297.97 466.54 364.13 480.98 89.60 204.70 671.94 337.04 220.72 170.93 151.69 58.56 54.93 183.17 388.49 1353.53 1770.39 2256.10 2386.87 1942.86 1827.43 1850.34 1288.18 939.77 258.88 356.34 501.32 301.46 254.45 324.47 400.50 445.75 436.50 261.85 349.06 246.68 418.87 175.25 -82.78 302.07 215.25 227.78 191.22 91.28 264.73 447.08 102.28 105.66 66.42 -7.23 -137.54 118.71 73.81 31.28 25.01 46.78 27.24 39.47 60.29 178.81 251.68 152.38 1373.42 342.62 425.63 1078.27 2192.27 1892.93 1921.64 1713.97 1259.09 683.14 559.85 205.29 449.89 343.71 10.22 69.02 64.16 104.41 165.44 10.69 14.91 72.23 192.70 166.05 71.18 228.26 276.04 379.63 158.48 29.80 126.77 176.14 37.67 115.54 113.34 215.45 247.20 172.87 -11.40 8.06 -47.73 -150.96 -121.18 -2.56 44.32 25.66 47.28 47.89 -11.95 -100.96 -15.70 -73.94 -66.45 -19.94 14.79 13.77 0.68 -75.53 41.94 -137.05 -90.60 -86.89 -84.54 -132.88 -95.95 -124.34 -152.62 -133.60 -22.60 -60.61 -119.08 -149.86 -107.68 -114.06 -129.94 -99.94 -83.52 -209.83 -200.57 -223.60 -288.37 -331.43 -288.20 -138.93 -114.27 -157.66 -204.96 -228.78 -229.92 -254.26 -432.59 -279.37 -257.89 -301.77 -262.76 -215.99 -179.59 -101.90 -72.21 -227.91 -253.41 -241.23 -210.33 -365.31 -392.23 -359.17 -315.78 -371.80 -361.88 -373.75 -454.87 -351.98 -310.13 -416.93 -502.65 -438.70 -510.10 -402.32 -378.90 -429.63 -423.49 -405.19 -301.82 -291.66 -355.45 -324.12 -189.77 -270.39 -281.37 -313.01 -335.29 -152.63 -198.39 -226.46 -274.03 -231.57
852.19 863.86 897.65 950.09 904.96 869.83 854.23 840.50 988.63 998.50 989.23 1069.45 1399.15 1964.92 2709.52 3024.93 2507.35 2937.58 2424.93 1899.98 1328.41 1461.78 1025.15 907.68 1029.61 1074.02 1137.08 2779.60 1764.55 697.62 618.77 735.12 570.27 370.02 465.19 436.99 438.39 446.50 515.10 546.55 614.65 635.10 707.29 662.10 667.12 675.40 674.29 697.02 780.52 735.91 638.39 683.62 593.63 689.44 745.43 681.12 672.51 642.24 673.99 709.32 679.42 695.87 1279.83 1882.31 1774.72 414.56 371.17 389.71 387.86 479.79 471.64 495.20 379.42 350.20 384.90 473.80 355.52 293.13 328.06 428.63 442.85 310.12 339.91 284.79 281.00 430.40 411.75 354.73 199.13 202.29 117.99 63.15 107.66 157.09 365.01 526.93 771.82 582.97 548.66 541.66 1101.43 1722.52 1080.47 966.31 857.10 768.03 252.26 378.13 393.88 376.37 408.75 367.38 364.32 262.57 202.62 330.40 244.39 217.94 208.88 202.17 855.69 1603.56 2013.64 1165.36 1243.77 482.11 393.32 255.37 218.14 17.00 73.32 179.88 356.79 631.80 568.99 19.80 0.95 74.46 205.67 212.39 578.57 1515.84 1461.62 1305.36 1009.77 485.26 49.21 57.02 710.40 -50.65 -102.71 123.19 14.43 130.98 87.93 193.44 129.00 151.15 190.99 208.61 233.53 293.42 244.08 254.67 120.76 261.61 426.72 309.70 210.24 116.81 126.50 141.17 100.74 160.55 490.71 195.04 129.81 224.13 264.89 66.63 37.49 -127.72 -36.69 175.79 106.03 24.60 14.65 23.51 -7.38 39.82 -5.70 7.61 -28.74 6.60 40.86 -19.99 0.99 24.04 -86.44 -20.57 20.27 -12.28 -70.42 -56.80 -57.47 -138.07 -159.42 -103.00 -180.85 -76.89 -190.07 -181.49 -266.76 -103.64 -104.15 -123.83 -85.73 -155.74 -172.91 -211.65 -182.95 -377.45 -296.60 -241.13 -221.67 -221.71 -200.63 -270.56 -255.12 -277.31 -32.61 -274.52 -382.02 -217.76 -180.70 -244.54 -223.48 -180.86 -112.95 -186.64 -275.38 -334.90 -237.26 -269.18 -295.57 -323.83 -346.97 -256.56 -371.48 -432.05 -437.28 -513.74 -505.06 -473.94 -317.11 -385.04 -478.47 -398.96 -278.05 -339.57 -380.81 -376.69 -395.40 -363.68 -334.93 -410.82 -272.96 -230.55 -277.68 -244.45 -93.33 -313.01 -101.65 -285.54 -251.62 -255.14 -273.52
994.17 936.52 940.58 1022.18 1087.63 1110.63 1122.03 1113.77 1141.82 1741.78 1241.08 1358.50 2268.37 2776.42 2570.54 2880.18 3211.30 3195.11 3074.42 3109.61 2411.02 1507.22 1095.08 1065.54 963.16 952.66 1513.50 2938.95 1455.07 1254.33 703.80 600.25 483.21 798.43 382.77 339.71 397.19 391.13 407.14 435.45 482.64 592.40 506.63 530.70 600.99 612.80 633.75 665.50 665.82 627.53 618.48 460.85 579.78 668.04 695.35 706.08 700.50 723.86 536.72 655.18 756.82 671.93 982.51 1232.42 867.42 471.77 415.34 397.84 382.03 632.37 418.18 463.19 389.35 420.49 355.56 292.72 339.46 363.66 232.30 278.06 350.15 370.74 261.96 393.91 481.59 329.05 277.52 388.13 299.83 230.63 192.31 140.12 124.62 144.00 122.19 213.78 218.30 216.26 258.89 211.34 410.01 421.20 413.70 288.33 382.67 290.24 261.96 365.35 393.05 421.93 415.12 343.48 297.47 313.48 174.11 212.75 225.41 314.90 289.58 2029.19 3015.91 3127.50 2833.89 1474.98 530.82 451.97 596.00 717.94 893.65 793.16 1524.18 2263.95 1722.43 900.78 311.48 559.05 795.72 792.03 1106.81 1777.86 2067.80 786.34 107.69 81.60 70.47 200.36 1272.50 2056.66 724.35 104.30 -29.55 238.63 157.82 235.26 216.80 277.28 226.73 237.52 309.64 363.75 234.02 224.13 218.63 86.85 413.65 689.13 478.84 229.72 75.34 68.05 236.90 216.67 116.90 99.44 142.58 16.40 138.36 253.13 139.47 83.31 9.88 -74.85 -113.39 450.73 160.07 53.31 64.18 -33.01 14.39 -7.68 74.47 20.17 46.99 -44.48 106.13 63.35 17.14 -19.68 -23.93 -22.10 -12.20 -21.79 -10.31 -33.44 -39.44 -147.09 -111.95 -71.53 -118.05 -91.28 -183.44 -187.69 -156.87 -166.11 -153.80 -194.27 -170.91 -153.15 -188.49 -242.98 -379.71 -318.21 -71.75 -56.37 -230.56 -278.73 -153.20 -273.56 -277.87 -413.75 307.62 -206.10 -403.01 -243.43 -273.70 -72.46 -203.65 -221.78 -235.15 -244.55 -326.72 -150.03 -240.51 -422.73 -442.29 -356.17 -458.86 -473.42 -469.68 -403.45 -377.25 -438.69 -432.81 -495.05 -386.51 -434.36 -490.60 -331.97 -292.02 -356.33 -411.26 -13.57 -260.32 -235.04 -260.63 -420.55 -282.05 -280.21 -346.06 -359.86 -288.23 -365.48 -230.70 -453.84 -215.63 -243.63 -210.69
1054.92 1076.61 1123.00 1235.89 1349.78 1710.64 2683.44 2321.11 2071.65 3290.29 1480.54 1449.90 2603.98 3087.43 2875.60 3093.09 3135.47 3130.37 2839.42 2285.74 2087.83 1668.24 1646.19 1296.81 1138.14 1295.15 2537.82 3095.64 2593.09 1274.98 1153.17 829.28 954.09 1970.64 359.37 348.54 357.34 386.76 381.30 364.46 370.15 416.81 493.70 524.56 546.78 537.08 626.79 610.00 588.28 601.00 597.93 524.25 531.33 563.01 848.65 726.88 630.36 631.58 520.87 474.50 701.62 510.49 588.29 588.70 588.49 563.11 630.23 527.13 423.78 443.49 474.95 616.32 411.63 371.91 338.07 417.65 314.10 309.66 383.18 226.61 219.56 256.71 344.60 292.62 300.78 316.51 306.85 346.35 333.75 306.43 247.35 277.99 210.23 188.81 197.27 140.12 187.35 264.62 335.85 260.79 298.33 275.52 424.07 252.72 246.29 295.65 423.52 407.69 384.78 410.72 428.82 377.44 226.33 207.20 221.32 216.02 236.51 689.17 1337.96 2174.05 2032.07 1779.76 1091.67 851.24 1424.11 1945.79 1727.53 1211.27 1209.59 792.16 268.32 195.99 157.69 224.41 214.41 234.62 244.40 398.66 723.82 362.90 158.27 389.55 846.16 644.13 1458.04 1360.69 667.55 322.02 268.11 60.47 62.60 443.59 350.12 259.12 435.27 461.18 357.87 265.57 279.58 313.03 216.63 246.59 283.26 156.05 247.58 407.41 319.90 137.93 175.78 129.90 287.67 261.68 260.78 329.78 69.30 51.56 189.24 23.90 11.85 41.36 -151.56 13.91 22.89 18.20 50.90 81.22 21.19 192.36 78.43 -5.73 57.39 90.15 95.61 -16.06 26.30 47.93 130.71 19.34 48.54 10.07 49.27 -91.85 -61.76 -26.40 -103.78 -77.14 -76.98 -84.04 -97.89 -71.47 -209.37 -161.53 -57.01 -78.46 41.92 -89.44 -271.48 -11.10 -257.17 -151.10 -153.24 -335.91 -252.53 -111.49 -92.24 -280.16 -222.60 -113.75 -256.69 -155.04 -288.56 -403.34 -331.13 -129.65 -175.08 -198.38 -110.92 -213.02 -198.09 -193.72 -224.99 -210.48 -377.35 -526.87 -539.24 -403.70 -343.14 -363.37 -263.87 -347.60 -337.27 -292.38 -312.65 -341.37 -293.87 -306.83 -329.95 -280.88 -445.00 -413.36 -413.74 -487.45 -430.37 -384.75 -459.10 -444.18 -271.87 -265.05 -249.39 -236.77 -276.64 -331.49 -228.45 -253.62 -227.94 -314.14 -272.12
1308.19 1152.81 1195.74 1414.77 1567.61 2285.97 4152.52 4476.32 4619.92 3965.52 1302.24 1397.51 2280.91 2667.37 2800.95 3269.33 3313.67 3279.41 3159.81 2527.28 1932.93 1672.84 1729.89 1517.97 1577.43 2987.31 4216.60 4184.79 2918.63 1663.23 1537.21 1286.89 1785.02 2334.50 627.21 541.29 318.58 307.53 389.24 383.77 336.67 329.15 391.28 459.64 482.06 541.09 554.10 542.59 569.12 522.18 529.07 486.04 498.88 692.80 2223.50 2195.88 1022.11 1317.19 588.11 407.85 488.71 386.85 745.69 575.65 373.06 280.64 403.56 581.05 959.28 627.71 462.99 468.76 354.82 294.94 441.01 268.77 269.06 243.32 393.04 286.30 223.34 200.45 243.88 291.57 236.94 244.68 292.08 360.55 302.93 415.01 285.09 267.78 250.97 251.84 237.56 240.90 187.27 231.35 334.13 281.78 409.76 333.48 517.52 365.36 367.60 343.24 455.96 511.82 401.64 342.15 240.12 301.89 233.01 213.85 205.36 260.79 1257.04 1764.23 2471.76 2832.45 1879.16 1082.39 778.53 764.79 324.09 239.06 179.64 186.19 210.36 217.42 230.57 214.55 311.24 253.60 233.21 252.05 247.65 293.17 291.51 232.87 217.40 241.95 229.88 226.69 240.42 242.67 243.28 252.34 319.76 239.20 194.32 413.84 322.80 387.58 344.45 426.15 388.60 254.69 388.75 315.78 455.37 289.88 321.68 356.59 311.48 231.45 316.40 161.73 228.64 349.69 346.60 307.88 324.98 186.40 110.19 148.08 120.27 82.27 112.90 209.70 -123.41 72.36 149.16 124.52 120.33 211.41 189.02 157.73 165.07 21.77 387.45 110.85 152.40 7.78 77.85 4.22 -17.36 -21.07 116.84 -79.12 -81.07 -86.97 -107.40 -53.44 -72.54 -91.19 -88.64 -131.13 -143.27 -158.30 -230.21 -153.58 -122.90 -133.01 -128.54 -215.97 -228.93 -213.69 -204.06 -88.87 -279.30 -212.94 -175.20 -215.93 -205.75 -352.54 -150.68 -159.81 -114.28 -28.70 -205.87 -258.66 -3.95 -325.92 -186.76 -171.54 -208.54 -323.40 -289.16 -214.23 -308.30 -271.64 -411.00 -462.82 -423.45 -262.82 -299.89 -288.60 -233.01 -297.58 -247.64 -129.27 -203.03 -164.69 -220.27 -166.79 -181.05 -182.58 -221.56 -331.19 -147.10 -286.69 -302.29 -359.70 -384.71 -282.60 -240.88 -206.26 -210.00 -364.12 -340.37 -305.38 -258.75 -412.52 -306.88 -246.97 258.33
1263.02 1257.96 1480.56 1995.16 2340.53 3466.49 5000.00 5000.00 4678.57 3789.52 1471.64 1648.56 2830.56 2828.95 3373.11 3726.66 3678.50 3510.11 3197.56 2552.88 2172.33 2078.08 2107.60 2017.80 2398.46 3880.85 4322.19 4234.18 2946.94 2079.20 1508.90 1093.89 1922.24 3039.82 1442.92 617.13 327.04 299.35 274.73 259.43 273.34 279.78 324.00 396.21 386.60 470.28 488.86 513.56 546.70 503.70 506.17 426.10 443.19 499.31 1544.46 1513.47 779.45 421.78 429.86 466.91 453.58 475.04 393.03 484.54 587.21 602.33 782.76 1344.82 1062.07 1710.26 862.57 497.79 419.86 500.29 373.80 250.07 278.20 264.53 244.64 242.80 357.06 401.29 211.85 260.83 317.90 255.67 255.32 267.34 283.58 390.60 345.70 350.69 279.56 266.93 256.88 251.50 221.75 230.63 260.84 304.09 420.29 362.66 483.19 398.20 419.03 387.88 453.64 396.66 343.52 367.52 306.96 245.29 211.52 211.83 893.57 1506.32 2247.09 2803.85 2147.18 1446.51 550.29 212.31 275.61 313.88 259.89 171.63 230.79 289.96 464.45 222.20 298.45 246.23 366.20 284.22 353.08 275.01 256.54 422.56 328.99 296.41 267.44 243.54 243.84 243.45 262.09 253.32 277.48 316.46 427.24 293.70 293.31 470.78 483.26 437.24 465.02 530.94 351.28 309.77 405.13 358.22 294.36 337.65 419.26 351.80 194.79 172.61 234.31 199.22 244.03 325.55 295.02 268.90 513.95 244.27 274.09 265.01 193.06 113.51 197.54 311.33 -39.72 218.22 114.65 98.67 243.57 274.08 148.84 73.97 50.88 91.29 167.20 125.78 250.41 45.18 156.47 -84.19 -37.80 -103.82 -104.50 -83.44 -10.67 -3.06 -30.14 -91.62 -34.05 -11.66 -109.05 -134.00 -189.85 -191.33 -211.48 -193.94 -125.68 -110.87 -128.21 -250.44 -200.28 -125.89 -152.86 -90.35 -170.35 -196.30 -196.99 -211.02 -180.76 -171.18 -185.34 -195.43 -190.35 -169.73 -218.84 -260.94 -219.84 -245.05 -157.89 -243.00 -236.26 -270.48 -205.14 -295.57 -312.94 -350.21 -257.16 -315.67 -236.47 -267.43 -259.42 -191.95 -236.79 -193.01 -177.96 -82.25 -266.54 -175.39 -164.55 -17.54 -45.27 36.09 -141.64 -95.59 -197.81 -116.62 -178.22 -145.94 -436.83 -402.69 -347.52 -142.37 -206.05 -406.99 -371.79 -296.24 -328.87 -282.50 -296.82 -303.96 -301.99
1405.67 1481.96 1716.42 2235.12 2991.76 4363.30 5000.00 5000.00 4334.43 2980.92 1579.08 1695.82 3037.87 3429.91 3692.23 3785.21 3808.56 3507.32 3227.45 2640.31 2630.83 2386.49 2476.19 2882.87 3661.92 4186.29 4308.15 4206.30 3347.51 2134.24 1586.50 1253.98 2315.34 3474.96 2396.30 1024.94 289.26 401.04 226.48 247.34 254.69 255.07 252.80 303.71 329.61 364.94 394.95 416.22 464.91 517.82 427.89 411.66 428.16 378.97 417.29 487.79 475.61 407.32 403.20 415.96 438.82 424.25 414.71 630.86 389.22 779.42 523.85 525.70 799.61 2764.14 2243.25 617.75 418.77 358.90 326.66 245.11 354.28 313.39 270.97 242.84 253.20 336.66 351.81 205.17 252.22 348.69 354.31 313.66 298.26 382.94 280.23 350.63 279.62 255.49 252.11 254.31 258.98 214.39 295.13 300.57 412.07 350.75 442.18 496.16 580.63 464.17 447.99 500.37 351.64 312.83 248.60 204.01 471.77 635.19 1258.50 1733.01 1059.91 1317.89 1103.06 532.77 307.70 155.21 355.84 331.60 267.74 342.99 968.34 476.29 525.74 344.94 309.05 350.50 497.66 271.06 297.82 302.38 313.83 322.73 326.16 445.07 468.71 891.87 732.85 550.43 296.15 282.10 340.37 475.91 505.05 382.17 417.58 498.89 430.05 520.60 534.67 386.93 300.01 316.87 329.67 336.31 294.71 431.35 404.43 325.45 214.39 164.64 250.22 443.53 965.43 295.40 845.29 386.90 438.34 223.14 277.09 298.71 221.55 203.21 237.66 368.09 339.78 205.40 125.18 173.12 -292.63 228.13 129.45 129.95 35.79 145.92 42.77 43.63 87.84 44.24 -55.61 -55.83 -79.04 -10.57 -67.98 -69.94 -18.84 -75.85 -37.51 -13.97 -68.86 -134.85 -96.73 -227.70 -72.30 -62.41 -173.45 -132.43 -182.34 -70.62 -111.54 -131.77 -145.94 -102.39 -154.95 -109.65 -117.64 -155.56 -199.02 -208.95 -278.93 -170.01 -279.88 -219.08 -218.94 -284.34 -252.66 -223.81 -324.65 -309.29 -380.91 -167.47 -231.66 -265.79 -367.18 -311.27 -181.21 -315.41 129.33 -321.87 -159.88 -185.97 -277.72 -255.65 -278.53 -297.10 -317.53 -188.90 -216.27 -127.20 -248.23 -144.01 -151.73 -155.22 -229.27 -154.43 -242.98 -129.30 -180.97 -118.49 -195.11 323.67 28.15 -108.84 -233.95 -397.30 -344.99 -171.06 -271.98 -412.42 -322.57 -267.37 -363.40
1649.29 1701.36 2182.68 3569.88 4415.54 5000.00 5000.00 5000.00 3756.45 1846.62 1566.61 1844.09 2943.71 3555.28 3717.07 3878.30 4094.85 4051.86 4026.84 4021.96 4023.24 3914.81 3811.83 3822.56 4136.07 4536.32 4387.22 4200.79 4049.97 2118.01 1594.07 1447.97 2231.35 3465.09 3088.39 1284.46 412.17 253.68 258.14 210.34 236.05 248.42 252.81 254.57 293.16 313.23 326.05 337.02 380.42 422.82 404.39 402.70 415.60 413.29 365.00 411.73 435.96 384.04 378.69 389.31 366.55 360.86 383.68 415.22 405.53 417.57 393.60 401.00 739.14 1608.94 1873.45 379.04 759.37 790.39 430.97 404.04 405.41 240.82 296.23 277.64 258.49 319.73 395.14 327.23 259.64 307.53 328.51 306.95 312.17 369.72 265.03 297.97 256.54 314.01 257.64 261.24 271.70 258.62 231.60 268.04 293.24 303.07 377.98 387.33 369.06 412.84 401.04 325.09 326.49 335.52 485.27 452.36 641.06 550.80 363.94 354.55 360.00 469.26 380.41 362.85 462.32 303.04 205.62 425.95 463.35 607.06 503.65 462.31 494.51 379.98 331.47 381.96 347.65 298.59 301.00 321.37 304.33 352.01 493.58 766.71 669.23 713.09 384.19 378.30 323.23 359.07 448.18 557.33 508.92 433.51 390.11 395.31 384.71 516.87 518.46 376.38 368.98 362.84 305.99 414.39 779.21 734.41 297.18 258.68 308.76 461.77 613.01 1010.05 1546.19 346.91 404.24 350.33 437.15 318.48 269.88 329.21 283.24 225.75 357.79 452.54 241.27 530.97 222.83 310.26 172.54 238.80 211.10 89.07 123.00 116.72 53.03 87.14 38.11 18.16 -66.94 42.67 0.26 27.29 -35.97 0.77 -41.26 -56.12 67.05 -74.18 -127.83 -74.10 -212.66 -113.54 -55.00 -62.77 -132.32 -105.09 -163.69 -136.82 -95.04 -120.18 -237.03 -178.58 -210.70 -193.23 -148.28 -130.34 -179.31 -202.71 -338.15 -171.99 -267.46 -176.23 -261.70 -301.85 -170.52 -301.13 -462.98 -430.97 -494.93 -403.95 -451.69 -360.72 -427.17 -298.46 235.54 86.12 10.91 -37.77 -83.69 -131.73 -156.35 -149.97 -162.76 -213.22 -239.42 -252.28 -222.85 -220.46 -172.43 -186.18 -144.43 -205.16 -206.23 -228.06 -103.58 -209.76 -147.96 -177.00 -242.31 -305.42 -350.46 -374.01 -386.25 -286.88 -335.74 -354.85 -200.82 -179.66 -134.57 -158.93 -324.30
1905.78 1746.48 2047.18 2922.06 4957.40 5000.00 4083.34 3782.86 3076.78 1684.09 1538.38 1494.60 2282.92 3492.95 3681.69 3964.98 4434.59 4589.63 4117.14 4128.56 4106.73 4092.46 4132.98 4013.48 4759.53 4776.29 4620.89 4179.14 3985.07 2029.38 1520.50 1623.34 2521.60 3665.46 3297.97 1323.21 728.10 243.73 189.73 215.31 237.31 242.33 226.86 258.74 268.90 269.05 283.83 299.87 318.68 331.49 351.18 387.55 354.41 367.22 371.34 366.47 265.81 349.87 361.58 374.76 396.33 355.38 355.37 396.08 496.52 465.61 389.67 388.97 386.05 432.39 323.70 668.43 2570.91 2443.36 1621.86 453.25 503.64 303.73 351.49 260.26 293.12 329.39 319.53 310.77 334.91 248.09 245.06 279.39 311.86 377.93 264.23 390.36 259.16 251.79 248.79 273.38 264.54 272.79 265.45 234.26 337.44 283.73 358.05 324.27 320.87 331.43 318.72 306.80 361.14 419.98 453.43 333.24 307.81 306.01 314.50 359.89 503.88 346.08 452.15 344.26 489.76 972.98 1534.93 1496.05 1280.95 654.47 437.48 404.89 412.20 424.99 620.06 570.44 310.07 530.29 305.32 344.42 369.83 368.60 383.17 417.40 445.13 398.23 352.91 400.29 365.74 407.47 443.61 598.95 489.51 452.32 424.44 420.30 501.51 441.45 379.21 402.71 671.71 403.63 317.01 474.11 338.38 978.41 795.50 635.01 606.31 1889.51 966.69 593.27 424.18 369.45 393.73 396.14 552.13 560.21 260.20 286.91 316.84 219.43 193.58 299.66 400.53 247.18 208.20 293.09 169.50 156.64 217.63 188.49 108.13 126.21 94.68 78.73 74.45 161.22 -49.52 84.24 138.65 52.94 4.00 37.30 -61.58 -73.37 -64.14 -79.28 61.71 -147.43 -169.11 -76.86 -78.77 -133.59 -102.84 -131.37 -33.28 327.53 -88.26 -189.35 -252.35 -212.11 -191.64 -221.31 -193.16 -155.89 -229.88 -214.31 -202.78 -179.51 -223.55 -231.15 -314.47 -377.25 -372.73 -285.53 -318.21 -454.49 -292.19 149.48 -76.92 -9.11 16.59 -77.91 253.90 -54.31 -304.34 -141.85 -97.28 -147.49 -185.94 -197.87 -201.08 -201.90 -177.92 -326.21 -274.21 -272.54 -124.80 -237.55 -204.20 -276.16 -180.10 -235.60 -301.18 -228.08 -179.73 -206.82 -193.16 -432.20 -280.63 -388.88 -442.55 -338.08 -273.50 -169.03 -169.13 -267.47 -229.94 -172.20 -373.91
2007.65 1977.56 2029.82 2359.22 3366.44 4202.49 2424.45 2111.68 1917.50 1768.29 1586.36 1469.70 1566.55 2437.28 3587.18 3983.75 3590.95 4056.23 4115.29 4117.88 4173.09 4493.46 4667.09 4780.28 4941.84 4867.93 4741.29 4111.73 3793.45 2045.61 1532.94 1586.85 2417.20 3780.26 3456.90 1763.70 954.96 324.14 189.25 192.08 180.22 222.84 239.42 249.14 236.74 244.41 270.28 269.98 267.02 280.01 298.32 307.08 335.80 349.39 372.79 293.43 360.48 346.90 340.15 463.41 415.92 343.76 349.77 426.24 418.83 396.62 604.35 1091.52 322.28 343.11 353.75 318.57 479.52 524.65 581.66 1841.67 1291.03 2063.69 325.07 258.96 247.83 332.32 308.72 258.91 248.46 338.22 231.13 196.14 263.63 331.23 262.60 400.63 293.69 809.83 1261.15 984.17 1294.00 469.57 422.00 427.51 519.48 300.05 313.49 317.49 316.41 301.41 350.23 452.45 343.26 438.79 367.43 329.24 321.84 332.30 324.00 325.66 437.52 366.00 457.84 333.38 707.03 435.49 380.28 332.62 382.53 405.59 461.26 520.82 826.31 416.47 381.34 313.42 335.63 480.70 344.71 391.71 400.94 394.13 420.75 421.63 388.40 373.19 405.68 706.93 403.38 537.77 440.43 505.66 484.10 596.45 479.22 437.69 389.46 430.18 418.53 465.28 443.90 412.19 389.63 583.11 535.46 426.08 368.91 375.55 387.66 414.21 297.64 320.62 543.62 404.68 441.60 504.34 550.78 439.18 375.02 323.52 239.26 139.05 165.14 294.67 423.10 264.06 279.64 303.94 264.98 387.41 238.06 169.18 181.83 192.85 132.67 105.21 35.41 17.89 23.77 35.08 167.60 0.54 -87.83 9.37 86.81 2.63 1.69 -78.13 -67.98 -144.30 -145.49 -99.75 -174.29 -191.78 134.87 -70.46 615.55 -179.05 -162.49 -249.85 -206.81 -222.25 -200.27 -193.24 -174.06 -195.25 -294.26 -130.95 -216.47 -363.18 -156.79 -190.59 -310.37 -217.07 -431.28 -571.32 -384.77 -405.71 -443.75 -428.43 157.43 124.27 60.30 92.64 211.12 -116.91 -356.40 -41.29 301.46 -227.32 -214.42 -196.66 -230.77 -165.71 -83.24 -77.10 -227.34 -261.91 -327.82 -235.45 -264.86 -227.84 -291.08 -346.29 -272.05 -296.29 -127.42 -152.98 -372.79 -217.54 -307.16 -322.80 -264.84 28.08 74.32 -328.19 -324.67 -279.55 -381.88 -360.66 -421.18
2263.85 2082.59 1997.74 2080.78 2145.89 2091.53 1964.94 1930.60 1805.37 1711.19 1623.86 1517.15 1495.04 2184.37 2109.10 2705.82 3163.56 4015.23 4685.51 4091.03 4634.21 4779.10 4859.68 4952.69 4972.71 4929.81 4804.20 4045.24 3476.08 1879.77 1528.78 1587.42 2344.22 4304.63 4161.74 2504.60 1421.22 612.99 245.03 219.63 217.47 213.75 215.31 209.98 246.30 258.93 253.08 234.75 267.32 272.53 280.38 292.95 301.77 308.80 321.45 282.38 403.14 335.07 333.86 322.56 350.06 322.23 486.32 459.47 528.21 352.10 296.15 298.71 283.90 335.13 321.15 329.80 301.28 258.49 709.16 833.19 530.32 316.46 228.30 234.77 361.17 293.06 238.55 258.38 212.04 186.05 215.18 342.57 195.22 255.30 316.50 409.10 268.11 601.95 1619.01 3298.11 2148.36 1208.45 1266.37 1470.63 1686.08 731.61 300.27 280.17 290.50 401.12 423.27 491.56 414.98 389.23 359.28 410.46 345.49 337.23 347.76 353.21 442.81 364.02 491.27 408.02 471.87 442.26 420.84 652.36 500.05 430.03 486.74 453.07 525.84 368.92 391.93 367.74 368.14 384.12 373.14 397.36 417.95 397.06 437.75 456.00 501.96 453.89 468.10 481.04 443.09 640.21 420.32 439.52 436.95 669.21 596.32 451.55 405.64 459.28 423.24 406.15 478.19 597.23 485.00 624.02 452.70 494.20 431.94 465.82 527.52 386.25 423.52 383.77 556.75 544.86 466.55 321.58 317.09 316.14 347.97 430.12 394.34 374.00 789.96 1242.54 374.50 317.31 466.39 309.81 243.11 282.82 275.86 233.71 220.57 183.14 183.31 100.82 109.52 60.82 109.97 63.40 78.15 13.29 75.92 122.63 135.11 71.63 -11.67 -45.33 -93.34 -81.02 -84.15 -113.13 -93.48 43.21 -103.71 127.31 -260.14 -229.00 82.45 -188.60 -198.35 -250.20 -221.56 -232.38 -164.92 -150.05 -247.35 -309.78 -227.96 -241.20 -165.83 -278.71 -390.36 -304.93 -322.07 -404.00 -465.20 -330.14 -305.05 -293.45 -367.19 -282.16 -169.53 -195.03 -103.73 -134.41 -326.51 -119.75 510.65 -113.55 -271.05 -159.75 -283.38 -294.42 -355.92 -360.31 -315.93 -338.61 -298.96 -244.80 -220.71 -166.66 138.55 -363.29 4.70 -227.79 -216.20 -301.98 -488.54 -316.51 -261.58 -176.37 -250.53 -206.19 -343.30 -323.41 -368.36 -344.20 -331.94 -304.65 -312.33
3200.74 2495.02 1949.48 2037.34 2021.60 1965.90 1878.17 1790.97 1745.48 1735.58 1695.29 1681.07 1608.39 1709.79 1711.13 1775.71 2777.45 3190.04 3969.05 4106.09 4823.21 5000.00 5000.00 5000.00 5000.00 4975.83 4731.30 3869.44 3494.16 1781.58 1577.57 1577.84 2263.36 4446.44 4442.22 2372.80 1251.94 565.19 245.14 199.19 181.48 106.91 183.23 217.37 226.27 217.76 242.06 256.42 266.49 238.68 223.27 279.76 284.00 289.57 299.53 292.83 297.60 305.70 351.35 320.90 315.58 290.65 290.61 400.95 378.98 300.88 311.22 328.14 330.73 295.88 305.31 289.12 306.36 271.30 318.04 369.23 348.03 392.48 369.11 362.57 324.70 299.30 231.83 221.56 222.94 221.10 232.75 317.40 202.04 189.36 239.14 299.89 270.48 1037.32 2068.99 3299.93 3197.90 1318.02 1771.18 3288.65 3332.82 1897.10 512.13 285.62 414.14 299.47 339.50 450.05 449.50 461.78 334.98 407.82 346.28 335.07 356.38 358.59 383.47 379.84 487.48 427.15 532.15 436.96 455.89 428.23 426.89 540.84 444.47 438.29 407.08 414.75 411.45 430.20 390.76 389.26 399.40 423.32 438.13 402.94 463.75 472.49 492.94 420.16 471.59 462.94 459.51 367.51 286.05 796.62 781.35 551.15 577.81 476.29 484.83 543.85 667.44 544.48 588.25 499.71 835.02 595.12 543.00 547.67 535.38 538.57 605.83 593.09 653.66 423.81 470.39 525.21 445.58 449.94 317.41 711.60 1183.45 785.19 1094.65 533.74 441.41 628.90 313.86 457.57 403.41 310.86 278.71 283.79 306.10 311.48 193.70 125.55 131.94 133.03 221.93 32.51 51.91 21.09 -67.15 109.70 117.33 120.97 141.00 78.85 24.35 19.94 -85.28 -33.01 -14.26 -84.14 -97.60 109.16 15.12 -188.44 -219.45 -199.77 -193.89 -244.50 -283.90 -243.38 -239.82 95.05 -243.70 -243.69 -208.54 -171.52 -225.75 -239.56 -254.98 -351.66 -260.66 -259.78 -268.30 -292.60 -371.45 -226.15 -158.20 -242.45 -226.51 -280.25 -203.86 -268.83 -344.56 -272.51 -346.25 -22.58 186.68 -255.63 -210.68 -355.81 -266.96 -137.58 -310.00 -323.16 -312.43 -382.46 -362.83 -300.42 -378.25 -187.45 -379.62 -333.31 -278.76 -203.62 -221.47 -196.03 -338.05 -196.13 -98.59 -145.31 -357.43 -345.00 -297.59 -263.53 -210.88 57.03 -258.06 -280.59 -328.88
